ply
format ascii 1.0
comment Generated by the ZED SDK.
element vertex 801
property float32 x
property float32 y
property float32 z
property float32 nx
property float32 ny
property float32 nz
property uchar red
property uchar green
property uchar blue
end_header
0.722204 0.8 -1.92 -0.957649 -0.067892 0.27982 186 197 214
0.745645 0.72 -1.92 -0.947773 -0.164395 0.273314 195 206 224
0.754502 0.64 -1.92 -0.97205 -0.107625 0.208651 193 202 221
1.36 0.0325674 -0.48 -0.761781 -0.471265 0.444521 49 45 42
1.33066 0.08 -0.48 -0.824897 -0.399879 0.399551 49 45 42
1.36 -0 -0.514527 -0.739086 -0.476558 0.476073 49 45 42
1.32904 -0 -0.56 -0.846113 -0.344899 0.406372 49 45 42
1.30622 0.08 -0.56 -0.683283 -0.50739 0.525052 49 45 42
1.28 0.08 -0.595769 -0.689227 -0.519395 0.505167 43 38 38
1.28 0.109483 -0.56 -0.655412 -0.582809 0.480383 43 38 38
1.28 0.0245576 -0.64 -0.724642 -0.432032 0.536883 50 49 44
1.29469 -0 -0.64 -0.766155 -0.395853 0.506268 50 49 44
0.0973307 0.64 -3.28 -0.957577 -0.0193603 0.287525 168 177 192
0.122088 0.56 -3.2 -0.961895 -9.16725e-05 0.273418 168 177 192
0.126394 0.64 -3.2 -0.938697 0.0505259 0.341021 168 177 192
0.101519 0.56 -3.28 -0.956948 0.0151149 0.289865 168 177 192
0.122289 0.48 -3.2 -0.94538 0.0909625 0.313022 167 177 192
0.093589 0.48 -3.28 -0.951485 0.0611471 0.301559 167 177 192
0.110298 0.4 -3.2 -0.955462 -0.0115717 0.294889 167 177 191
0.0870236 0.4 -3.28 -0.976351 0.0526689 0.209678 167 177 191
0.1219 0.32 -3.2 -0.919578 0.0620592 0.387976 169 179 193
0.0841015 0.32 -3.28 -0.884243 0.20961 0.417346 169 179 193
0.08 0.305258 -3.28 -0.812347 0.280148 0.511478 165 177 189
0.0665451 0.24 -3.28 -0.919345 0.246959 0.306293 165 177 189
0.08 0.24 -3.23536 -0.863887 0.263773 0.429097 165 177 189
0.105639 0.24 -3.2 -0.784349 0.311522 0.536424 170 181 195
0.08 0.1798 -3.2 -0.871448 0.283227 0.400452 129 137 148
0.0736915 0.16 -3.2 -0.70901 -0.601697 0.367785 129 137 148
0.0270311 0.16 -3.28 -0.831949 -0.22624 0.506632 129 137 148
0.08 0.122591 -3.28 -0.597156 -0.738707 0.312596 118 114 102
0.08 0.155317 -3.2 -0.575815 -0.756715 0.309547 118 114 102
0.151931 0.08 -3.2 -0.530128 -0.830319 0.171856 125 112 100
0.124755 0.08 -3.28 -0.56361 -0.798974 0.209727 125 112 100
0.16 0.0593927 -3.28 -0.512288 -0.840457 0.176618 103 105 93
0.16 0.0750403 -3.2 -0.517966 -0.839195 0.16572 103 105 93
0.24 0.00587848 -3.28 -0.527972 -0.832539 0.167701 103 105 94
0.24 0.0258245 -3.2 -0.52426 -0.826264 0.206008 103 105 94
0.280074 -0 -3.2 -0.529766 -0.823022 0.204897 101 104 93
0.24928 -0 -3.28 -0.5275 -0.832763 0.168078 101 104 93
0.08 0.64 -3.34195 -0.942319 -0.0250406 0.333779 162 171 184
0.0731925 0.64 -3.36 -0.933176 -0.0225188 0.358713 162 171 184
0.08 0.56 -3.34795 -0.902401 0.0616496 0.426465 162 171 184
0.0738811 0.56 -3.36 -0.895782 0.0634527 0.43994 162 171 184
0.08 0.48 -3.3209 -0.942609 0.01976 0.333313 164 174 186
0.0653254 0.48 -3.36 -0.938379 0.00296401 0.345595 164 174 186
0.08 0.4 -3.33538 -0.944089 0.213155 0.251517 163 174 186
0.0741279 0.4 -3.36 -0.908361 0.291878 0.299478 163 174 186
0 0.342781 -3.36 -0.554422 0.718262 0.420377 166 178 189
0 0.32 -3.31401 -0.729613 0.0537071 0.681748 166 178 189
0.08 0.32 -3.28865 -0.845847 0.241099 0.47583 166 178 189
0.0407831 0.24 -3.36 -0.921676 0.0294906 0.386838 165 176 189
0 0.299872 -3.36 -0.800638 -0.545374 0.248085 165 176 189
0 0.178724 -3.36 -0.798899 0.532229 0.280166 129 136 146
0 0.16 -3.324 -0.878762 0.0601531 0.473453 129 136 146
0 0.131135 -3.36 -0.504228 -0.738599 0.447465 118 113 102
0.08 0.0905684 -3.36 -0.61623 -0.732928 0.288232 118 113 102
0.0916091 0.08 -3.36 -0.632231 -0.72404 0.275773 124 112 100
0.16 0.0415553 -3.36 -0.494146 -0.846301 0.198982 102 104 93
0.226722 -0 -3.36 -0.520062 -0.839418 0.157839 103 105 94
0.24 -0 -3.31158 -0.527254 -0.835811 0.153043 103 105 94
0.0415993 0.64 -3.44 -0.911065 0.0186607 0.41184 162 172 184
0.0392259 0.56 -3.44 -0.912548 0.0336515 0.407582 162 172 184
0.0370449 0.48 -3.44 -0.901637 0.151154 0.40522 164 174 186
0 0.406198 -3.44 -0.808987 0.406653 0.424468 163 174 186
0 0.4 -3.43421 -0.777734 0.423473 0.464542 163 174 186
0 0.260997 -3.44 -0.82971 -0.479751 0.285343 165 176 188
0.011999 0.24 -3.44 -0.943513 0.059612 0.32593 165 176 188
0 0.222333 -3.44 -0.795031 0.539952 0.276364 129 135 144
0.08 0.08 -3.38666 -0.541665 -0.777027 0.32067 117 111 101
0 0.08 -3.43265 -0.15728 -0.9489 0.27359 117 111 101
0 0.0781002 -3.44 -0.164007 -0.952301 0.257342 103 105 93
0.08 0.0591212 -3.44 -0.309084 -0.894123 0.324053 103 105 93
0.16 0.0233971 -3.44 -0.468753 -0.862446 0.190938 102 104 93
0.199282 -0 -3.44 -0.501193 -0.846407 0.180001 103 105 93
0.00229923 0.64 -3.52 -0.879057 0.0164085 0.476434 159 170 181
0.000728836 0.56 -3.52 -0.901818 -0.0317514 0.430947 159 170 181
0.00690159 0.48 -3.52 -0.847766 0.403136 0.344638 164 173 186
0 0.468327 -3.52 -0.811391 0.479733 0.333917 164 176 187
0 0.24 -3.4755 -0.947103 0.0231905 0.32009 164 175 187
0.08 0.0253329 -3.52 -0.294049 -0.894565 0.336584 103 105 93
0 0.0621449 -3.52 -0.408055 -0.886787 0.217026 103 105 93
0.16 0.0054157 -3.52 -0.417078 -0.887282 0.19692 102 104 92
0.170827 -0 -3.52 -0.439258 -0.878148 0.189496 103 105 93
0 0.56 -3.52152 -0.901547 -0.0323566 0.43147 156 167 179
0 0.64 -3.52422 -0.877872 0.0161184 0.478624 156 167 179
0 0.48 -3.53716 -0.873404 0.337183 0.351388 163 173 185
0 0.0387843 -3.6 -0.463492 -0.848912 0.254014 103 105 93
0.0679175 -0 -3.6 -0.480195 -0.835031 0.268582 103 105 93
0.08 -0 -3.57941 -0.408656 -0.853157 0.324228 103 105 93
0.16 -0 -3.54377 -0.350477 -0.910279 0.220357 102 105 92
0 0.0185656 -3.68 -0.525944 -0.820299 0.224704 103 105 93
0.028508 -0 -3.68 -0.530884 -0.81519 0.231576 103 105 93
0 -0 -3.75342 -0.533866 -0.819769 0.207282 103 105 93
-0.64 -0.63885 -4.16 -0.183835 0.97445 0.129043 123 126 118
-0.646083 -0.64 -4.16 -0.184144 0.974255 0.130068 123 126 118
-0.64 -0.64 -4.15122 -0.184203 0.974564 0.12765 123 126 118
-0.64 -0.632444 -4.24 -0.10177 0.990347 0.0941032 123 125 116
-0.71389 -0.64 -4.24 -0.101469 0.989598 0.101981 123 125 116
-0.72 -0.64 -4.24597 -0.101404 0.989066 0.107079 124 126 116
-0.72 -0.630507 -4.32 -0.0106458 0.999336 0.0348389 124 126 116
-0.64 -0.629655 -4.32 -0.0106458 0.999336 0.0348389 124 126 116
-0.16 0.64 -3.86753 -0.9339 0.0497748 0.354051 146 152 152
-0.185767 0.64 -3.92 -0.898603 0.0896501 0.429506 146 152 152
-0.16 0.56 -3.85628 -0.922292 0.049771 0.383277 146 152 152
-0.195099 0.56 -3.92 -0.904135 0.040271 0.425345 146 152 152
-0.153634 0.56 -3.84 -0.930695 0.0427291 0.363291 155 164 173
-0.151005 0.64 -3.84 -0.948385 0.0426703 0.314238 155 164 173
-0.16 0.48 -3.84424 -0.958621 0.03687 0.282287 150 156 157
-0.18949 0.48 -3.92 -0.937635 -0.0277128 0.346515 150 156 157
-0.158779 0.48 -3.84 -0.960297 0.0377857 0.276407 156 165 175
-0.16 0.425422 -3.84 -0.933435 0.0272534 0.357709 151 158 160
-0.160745 0.4 -3.84 -0.92473 0.122733 0.360292 151 158 160
-0.192016 0.4 -3.92 -0.888457 0.292877 0.353365 151 158 160
-0.24 0.335435 -3.92 -0.62779 0.675152 0.387362 148 154 144
-0.258466 0.32 -3.92 -0.627779 0.650053 0.428164 148 154 144
-0.24 0.32 -3.89397 -0.653026 0.608305 0.451133 148 154 144
-0.191974 0.32 -3.84 -0.693544 0.499959 0.518689 152 160 161
-0.24 0.262119 -3.84 -0.728669 0.457891 0.509291 150 156 146
-0.252396 0.24 -3.84 -0.87056 0.0973545 0.482336 150 156 146
-0.296476 0.24 -3.92 -0.863042 -0.0423069 0.503357 150 156 146
-0.24 0.207923 -3.84 -0.894825 -0.288184 0.340938 153 156 148
-0.24 0.16 -3.88051 -0.820283 -0.497759 0.281729 153 156 148
-0.256264 0.16 -3.92 -0.63215 -0.728445 0.264109 153 156 148
-0.228796 0.16 -3.84 -0.889456 -0.381173 0.252142 164 164 160
-0.24 0.148069 -3.92 -0.585646 -0.777712 0.228437 132 132 118
-0.16 0.104049 -3.84 -0.640308 -0.739048 0.209318 108 105 91
-0.16 0.0811365 -3.92 -0.637884 -0.752025 0.16602 108 105 91
-0.132819 0.08 -3.84 -0.645036 -0.736634 0.203224 104 100 88
-0.158662 0.08 -3.92 -0.63821 -0.751769 0.165926 104 100 88
-0.08 0.0140342 -3.92 -0.536771 -0.823698 0.182751 103 105 91
-0.08 0.0334317 -3.84 -0.593367 -0.782265 0.189675 103 105 91
-0.0296006 -0 -3.84 -0.53601 -0.821729 0.19353 103 105 92
-0.0568199 -0 -3.92 -0.509718 -0.841896 0.177198 103 105 92
-0.219956 0.64 -4 -0.910819 0.104082 0.399469 149 153 155
-0.229102 0.56 -4 -0.920131 -0.0240062 0.390874 149 153 155
-0.215261 0.48 -4 -0.944426 -0.0571515 0.323718 151 158 159
-0.21857 0.4 -4 -0.828312 0.464794 0.312834 153 160 161
-0.24 0.375327 -4 -0.687499 0.659546 0.303881 148 154 143
-0.309678 0.32 -4 -0.749652 0.46194 0.473954 148 154 143
-0.32 0.299538 -4 -0.805104 0.363184 0.46894 155 161 148
-0.337879 0.24 -4 -0.91785 -0.106917 0.382256 155 161 148
-0.32 0.24 -3.95765 -0.883124 -0.0877743 0.460855 155 161 148
-0.32 0.199236 -4 -0.796608 -0.439064 0.415497 155 160 147
-0.292923 0.16 -4 -0.666444 -0.624619 0.407068 150 154 147
-0.24 0.125461 -4 -0.567596 -0.783281 0.253586 136 135 121
-0.186332 0.08 -4 -0.652132 -0.719795 0.237949 106 102 89
-0.16 0.08 -3.92523 -0.634728 -0.754872 0.165194 106 102 89
-0.16 0.0553511 -4 -0.643407 -0.725811 0.243363 118 120 107
-0.0863342 -0 -4 -0.579952 -0.773295 0.256261 102 105 91
-0.08 -0 -3.98553 -0.574297 -0.78535 0.231101 102 105 91
-0.24 0.64 -4.04493 -0.785509 0.152588 0.599744 142 145 135
-0.287078 0.64 -4.08 -0.577758 0.0263112 0.815784 142 145 135
-0.24 0.56 -4.02458 -0.873042 -0.0588947 0.484076 142 145 135
-0.290044 0.56 -4.08 -0.645374 -0.088545 0.758717 142 145 135
-0.24 0.48 -4.07006 -0.651574 -0.0445966 0.757273 143 147 137
-0.255045 0.48 -4.08 -0.542793 -0.0417791 0.838827 143 147 137
-0.24 0.4 -4.0567 -0.70816 0.400327 0.581591 145 152 140
-0.272948 0.4 -4.08 -0.507816 0.463373 0.726229 145 152 140
-0.32 0.374828 -4.08 -0.587197 0.631033 0.506949 153 160 147
-0.348103 0.32 -4.08 -0.862759 0.345565 0.369096 153 160 147
-0.32 0.32 -4.0165 -0.766665 0.452465 0.455522 153 160 147
-0.367651 0.24 -4.08 -0.936722 -0.0555633 0.345636 155 161 149
-0.32 0.16 -4.04165 -0.720603 -0.560727 0.407819 155 160 147
-0.337588 0.16 -4.08 -0.867056 -0.361036 0.343317 155 160 147
-0.32 0.142031 -4.08 -0.486419 -0.816688 0.310512 137 137 124
-0.24 0.100097 -4.08 -0.588243 -0.769145 0.249773 137 137 124
-0.216832 0.08 -4.08 -0.645092 -0.72314 0.24683 104 99 86
-0.16 0.0269416 -4.08 -0.602706 -0.755793 0.255974 116 120 106
-0.122807 -0 -4.08 -0.56716 -0.783023 0.255351 102 104 91
-0.32 0.64 -4.09908 -0.690158 -0.0443053 0.722301 143 146 135
-0.34497 0.64 -4.16 -0.944596 -0.0254006 0.327251 143 146 135
-0.32 0.56 -4.10399 -0.760929 -0.0495912 0.646937 143 146 135
-0.342747 0.56 -4.16 -0.938519 -0.0317578 0.343764 143 146 135
-0.32 0.48 -4.11581 -0.790527 -0.044048 0.610841 147 151 139
-0.339432 0.48 -4.16 -0.920676 0.00116366 0.390326 147 151 139
-0.32 0.4 -4.11335 -0.691815 0.439837 0.572656 150 155 143
-0.342721 0.4 -4.16 -0.881786 0.228953 0.412352 150 155 143
-0.38197 0.32 -4.16 -0.88961 0.265889 0.371345 152 159 146
-0.395189 0.24 -4.16 -0.933424 -0.065843 0.352682 155 161 148
-0.363571 0.16 -4.16 -0.893986 -0.35332 0.275597 155 159 148
-0.32 0.115881 -4.16 -0.446626 -0.848661 0.283373 140 141 126
-0.252107 0.08 -4.16 -0.54608 -0.753254 0.366613 140 141 126
-0.24 0.08 -4.14189 -0.579948 -0.739326 0.342137 140 141 126
-0.24 0.070728 -4.16 -0.580168 -0.725176 0.370843 152 156 144
-0.16 0.00117852 -4.16 -0.558105 -0.778888 0.286097 116 119 105
-0.158355 -0 -4.16 -0.558121 -0.778945 0.285914 102 104 91
-0.36657 0.64 -4.24 -0.961739 0.0070701 0.273875 142 146 135
-0.36805 0.56 -4.24 -0.953203 0.0259249 0.301216 142 146 135
-0.372281 0.48 -4.24 -0.924839 0.0906561 0.369398 147 150 139
-0.381442 0.4 -4.24 -0.854658 0.281012 0.436569 150 155 143
-0.4 0.359678 -4.24 -0.849652 0.349199 0.39516 152 158 146
-0.4 0.32 -4.20294 -0.906338 0.222066 0.359498 152 158 146
-0.412517 0.32 -4.24 -0.929426 0.173977 0.32542 152 156 141
-0.4 0.24 -4.17235 -0.931738 -0.0523167 0.359342 152 156 141
-0.422087 0.24 -4.24 -0.948655 0.0966881 0.301173 152 156 141
-0.4 0.186161 -4.24 -0.843901 -0.421313 0.332153 155 159 148
-0.386936 0.16 -4.24 -0.825976 -0.46415 0.319888 155 159 148
-0.32 0.0889103 -4.24 -0.485932 -0.797276 0.358079 143 142 128
-0.304105 0.08 -4.24 -0.477256 -0.793714 0.377153 143 142 128
-0.24 0.0282141 -4.24 -0.567877 -0.726899 0.386177 152 155 144
-0.207736 -0 -4.24 -0.617966 -0.706672 0.344575 115 117 105
-0.16 -0 -4.16319 -0.557673 -0.778681 0.287501 115 117 105
-0.38862 0.64 -4.32 -0.964868 0.0452692 0.258807 143 146 135
-0.39185 0.56 -4.32 -0.953541 0.0710282 0.292771 143 146 135
-0.4 0.4876 -4.32 -0.95549 0.107564 0.274718 147 151 139
-0.4 0.48 -4.31701 -0.948299 0.117824 0.294698 147 151 139
-0.4 0.4 -4.2754 -0.869418 0.276307 0.409594 149 155 143
-0.418091 0.4 -4.32 -0.897311 0.271401 0.348102 153 158 144
-0.440112 0.32 -4.32 -0.931332 0.152506 0.330699 153 158 144
-0.443493 0.24 -4.32 -0.952635 -0.0842778 0.292207 154 159 145
-0.4 0.16 -4.27329 -0.78546 -0.532602 0.315257 155 160 148
-0.4 0.137623 -4.32 -0.713646 -0.642876 0.278244 153 157 144
-0.348875 0.08 -4.32 -0.805788 -0.491452 0.330424 153 157 144
-0.32 0.08 -4.25915 -0.549089 -0.737379 0.393412 153 157 144
-0.32 0.0113671 -4.32 -0.475777 -0.691842 0.543131 155 157 145
-0.281934 -0 -4.32 -0.230753 -0.772735 0.591298 152 155 143
-0.24 -0 -4.3033 -0.362825 -0.835263 0.413151 152 155 143
-0.4 0.56 -4.34671 -0.955173 0.0731357 0.286874 144 147 136
-0.4 0.64 -4.36575 -0.96883 0.0573609 0.240993 144 147 136
-0.450119 0.4 -4.4 -0.90705 0.225489 0.355548 154 160 145
-0.470639 0.32 -4.4 -0.942707 0.104719 0.31676 154 160 145
-0.468105 0.24 -4.4 -0.943376 -0.167362 0.286411 155 160 146
-0.416057 0.16 -4.32 -0.907094 -0.334057 0.256098 155 159 146
-0.43671 0.16 -4.4 -0.899019 -0.352816 0.259394 155 159 146
-0.4 0.11004 -4.4 -0.716751 -0.638757 0.279745 153 156 144
-0.37321 0.08 -4.4 -0.789825 -0.533585 0.30243 153 156 144
-0.32 -0 -4.33458 -0.471901 -0.691231 0.547274 154 157 145
-0.349559 -0 -4.4 -0.895995 -0.302381 0.325205 154 157 145
-0.48 0.32 -4.42844 -0.942567 0.0987331 0.319091 154 159 145
-0.48 0.4 -4.47187 -0.903952 0.204024 0.375826 154 159 145
-0.48 0.24 -4.4391 -0.939157 -0.187905 0.287533 155 160 146
-0.48 0.205811 -4.48 -0.897228 -0.341853 0.279497 155 159 145
-0.462303 0.16 -4.48 -0.894104 -0.347442 0.282598 155 159 145
-0.4 0.08 -4.45786 -0.831117 -0.401432 0.384833 153 155 143
-0.4 0.050708 -4.48 -0.84613 -0.342171 0.408636 154 157 145
-0.376838 -0 -4.48 -0.862709 -0.337487 0.376611 154 157 145
0.72 0.88 -1.98263 -0.974699 0.118221 0.189698 186 197 214
0.716667 0.88 -2 -0.979619 0.0973398 0.175705 186 197 214
0.72 0.8 -1.93278 -0.98552 -0.032606 0.166394 186 197 214
0.71161 0.8 -2 -0.970674 -0.186263 0.151981 186 197 214
0.722204 0.8 -1.92 -0.985833 -0.025434 0.165792 191 202 219
0.732801 0.88 -1.92 -0.972812 0.124471 0.195303 191 202 219
0.72 0.772859 -2 -0.942517 -0.292106 0.162284 197 208 225
0.736306 0.72 -2 -0.965318 -0.174507 0.194186 196 208 225
0.745645 0.72 -1.92 -0.974466 -0.193593 0.113748 196 208 225
0.754502 0.64 -1.92 -0.985581 -0.0702194 0.153948 193 202 220
0.738766 0.64 -2 -0.96346 -0.02962 0.266208 193 202 220
0.702812 0.88 -2.08 -0.987511 0.0791844 0.136209 190 201 217
0.697966 0.8 -2.08 -0.988573 -0.084947 0.124529 190 201 217
0.72 0.72 -2.07011 -0.883521 -0.130221 0.449925 198 208 224
0.714446 0.72 -2.08 -0.869749 -0.0972114 0.483824 198 208 224
0.72 0.64 -2.05587 -0.885867 0.06945 0.458711 194 202 221
0.703984 0.64 -2.08 -0.815174 0.106609 0.569321 194 202 221
0.704536 0.96 -2.16 -0.980454 0.146928 0.130855 179 189 206
0.704689 0.96 -2.08 -0.999723 0.0234569 0.00191278 179 189 206
0.688972 0.88 -2.16 -0.983296 0.0805766 0.163208 179 189 206
0.693838 0.8 -2.16 -0.909399 0.261976 0.323051 194 204 221
0.64 0.728098 -2.16 -0.752624 0.566838 0.33504 198 208 225
0.64 0.72 -2.14665 -0.750093 0.470433 0.464816 198 208 225
0.64 0.64 -2.15728 -0.709397 -0.0204251 0.704513 192 201 219
0.689849 0.96 -2.24 -0.9638 0.193863 0.183046 183 193 210
0.673576 0.88 -2.24 -0.967998 0.133424 0.212552 183 193 210
0.664679 0.8 -2.24 -0.772831 0.489834 0.403479 195 206 222
0.64 0.771229 -2.24 -0.694035 0.595347 0.404817 198 208 225
0.674495 0.96 -2.32 -0.918907 0.216705 0.329619 186 198 214
0.657034 0.88 -2.32 -0.812868 0.338904 0.473697 186 198 214
0.64 0.849395 -2.32 -0.758828 0.422342 0.495789 196 207 224
0.64 0.8 -2.27779 -0.718116 0.514233 0.468907 196 207 224
0.64 0.88 -2.34602 -0.793512 0.338294 0.505861 189 201 217
0.64 0.96 -2.39245 -0.876036 0.242088 0.417079 189 201 217
-0.56 -0.651966 -4.56 0.202893 0.978445 0.0384769 133 134 126
-0.593191 -0.64 -4.56 0.338672 0.94068 0.0205604 133 134 126
-0.576786 -0.64 -4.48 0.288911 0.953834 -0.0820482 133 134 126
-0.56 -0.644996 -4.48 0.248693 0.964928 -0.0840635 133 134 126
-0.48 -0.651539 -4.48 -0.496453 0.851378 0.169382 134 136 131
-0.48 -0.64 -4.53112 -0.354014 0.912291 0.205911 134 136 131
-0.503071 -0.64 -4.56 -0.219865 0.958852 0.179618 134 136 131
-0.463518 -0.64 -4.48 -0.563957 0.80554 0.181816 95 96 94
-0.56 -0.641804 -4.64 0.307507 0.945595 0.106253 134 135 126
-0.565567 -0.64 -4.64 0.306571 0.945943 0.105857 134 135 126
-0.553957 -0.64 -4.64 -0.280881 0.952061 0.121186 125 128 122
0 -0.08 -3.86378 -0.945945 -0.00713872 0.324249 153 156 145
0.0081513 -0.08 -3.84 -0.945929 -0.00920071 0.324244 153 156 145
0 -0.0402604 -3.84 -0.928649 -0.190482 0.31832 153 156 145
0 -0.121801 -3.84 -0.930274 0.181405 0.318877 154 158 148
1.28 -0 -0.669073 -0.75077 -0.463901 0.470256 52 51 47
1.29821 -0 -0.64 -0.75077 -0.463901 0.470256 52 51 47
1.28 0.0294711 -0.64 -0.75077 -0.463901 0.470256 52 51 47
-0.48 -0.32 -4.54955 -0.714808 0.577934 0.393754 139 141 130
-0.485686 -0.32 -4.56 -0.744692 0.554231 0.371835 139 141 130
-0.48 -0.367387 -4.48 -0.749386 0.54406 0.377385 139 141 130
-0.500727 -0.4 -4.48 -0.880988 0.274325 0.385494 139 141 130
-0.535177 -0.4 -4.56 -0.933813 0.170526 0.314505 139 141 130
-0.438469 -0.32 -4.48 -0.686042 0.601273 0.409655 145 147 138
-0.485839 -0.48 -4.48 -0.900186 -0.144232 0.410929 140 142 131
-0.524834 -0.48 -4.56 -0.934671 -0.103786 0.340029 140 142 131
-0.515107 -0.32 -4.64 -0.908983 0.366504 0.198556 139 141 130
-0.552776 -0.4 -4.64 -0.975632 0.0606818 0.210854 139 141 130
-0.548118 -0.48 -4.64 -0.970474 -0.0565042 0.234496 138 140 128
-0.48 -0.56 -4.62355 -0.929042 -0.13322 0.345157 145 148 138
-0.456388 -0.56 -4.56 -0.879046 -0.347306 0.326582 145 148 138
-0.48 -0.535347 -4.56 -0.697526 -0.668059 0.259144 145 148 138
-0.48 -0.617844 -4.56 -0.875493 0.357374 0.325262 65 66 59
-0.544408 -0.32 -4.72 -0.90594 0.293616 0.30506 138 140 129
-0.56 -0.373074 -4.72 -0.91454 0.268671 0.302377 138 140 129
-0.56 -0.4 -4.68296 -0.985721 -0.0295633 0.165772 138 140 129
-0.56 -0.48 -4.69723 -0.980023 -0.0493214 0.192674 136 138 127
-0.56 -0.32 -4.76716 -0.91454 0.268671 0.302377 138 140 129
1.32904 -0 -0.56 -0.618338 -0.686383 0.382801 62 60 57
1.36 -0.027226 -0.56 -0.618123 -0.685271 0.385134 62 60 57
1.36 -0 -0.514527 -0.643311 -0.65687 0.393285 62 60 57
1.37947 -0 -0.48 -0.710259 -0.625887 0.322175 59 57 53
1.41719 -0.08 -0.56 -0.824165 -0.479791 0.300919 59 57 53
1.42965 -0.08 -0.48 -0.837502 -0.482375 0.25672 59 57 53
1.44 -0.148259 -0.56 -0.804014 -0.354755 0.47719 70 69 65
1.44 -0.0967985 -0.48 -0.808659 -0.494756 0.318256 70 69 65
1.47765 -0.16 -0.48 -0.883372 -0.313254 0.348606 67 66 62
1.44536 -0.16 -0.56 -0.815042 -0.216164 0.537569 67 66 62
1.44 -0.189677 -0.56 -0.837105 0.130319 0.531293 74 73 69
1.43227 -0.24 -0.56 -0.771472 0.101437 0.628126 74 73 69
1.44 -0.24 -0.551482 -0.745083 0.107591 0.658237 74 73 69
1.48791 -0.24 -0.48 -0.866332 0.0542255 0.496516 72 71 67
1.44 -0.32 -0.539422 -0.855622 0.159345 0.492464 75 75 70
1.42847 -0.32 -0.56 -0.690358 0.219588 0.689338 75 75 70
1.4742 -0.32 -0.48 -0.842278 0.212762 0.495278 73 72 69
1.44 -0.4 -0.492139 -0.764669 0.326487 0.555596 76 76 71
1.41358 -0.4 -0.56 -0.921799 0.240258 0.304242 76 76 71
1.44953 -0.4 -0.48 -0.740661 0.337115 0.581184 73 74 69
1.36 -0.467206 -0.56 -0.720253 0.647071 0.25007 86 87 81
1.34818 -0.48 -0.56 -0.769901 0.609321 0.189684 86 87 81
1.36 -0.48 -0.551214 -0.53354 0.479228 0.696905 86 87 81
1.42776 -0.48 -0.48 -0.764977 0.209428 0.609057 82 81 77
1.44 -0.419234 -0.48 -0.789791 0.327379 0.518704 82 81 77
1.29469 -0 -0.64 -0.691055 -0.65907 0.296763 67 66 62
1.36 -0.0684821 -0.64 -0.646106 -0.675515 0.355283 67 66 62
1.37206 -0.08 -0.64 -0.679004 -0.626272 0.383063 62 60 56
1.44 -0.16 -0.567868 -0.820022 -0.184761 0.541689 76 75 71
1.40658 -0.16 -0.64 -0.910236 -0.160326 0.381794 76 75 71
1.41652 -0.24 -0.64 -0.966635 0.0262868 0.254804 78 77 72
1.39037 -0.32 -0.64 -0.906345 0.178494 0.382986 81 81 76
1.38987 -0.4 -0.64 -0.958723 -0.00791112 0.28423 82 82 76
1.36 -0.48 -0.578259 -0.771371 0.425509 -0.473211 92 92 87
1.39169 -0.48 -0.64 -0.946584 0.116801 -0.300559 86 87 81
1.36 -0.56 -0.560717 -0.814712 -0.147833 -0.560705 101 102 97
1.35951 -0.56 -0.56 -0.814685 -0.147876 -0.560732 101 102 97
1.40119 -0.56 -0.64 -0.883795 -0.102726 -0.456457 96 96 91
1.36 -0.562703 -0.56 -0.814584 -0.148687 -0.560665 109 110 105
1.32108 -0.64 -0.64 -0.605395 0.689975 0.396777 109 110 105
1.36 -0.64 -0.580613 -0.605395 0.689975 0.396777 109 110 105
1.36 -0.605849 -0.64 -0.605395 0.689975 0.396777 109 110 105
0.8 0.72 -1.01789 -0.538965 -0.655385 -0.529139 173 179 200
0.8 0.67326 -0.96 -0.597381 -0.668968 -0.442288 173 179 200
0.749585 0.72 -0.96 -0.585027 -0.63102 -0.509467 173 179 200
0.88 0.641536 -1.04 -0.563743 -0.602883 -0.564557 177 184 204
0.88 0.64 -1.03662 -0.727405 -0.624547 -0.284293 177 184 204
0.850053 0.64 -0.96 -0.543734 -0.810153 -0.219102 177 184 204
0.822805 0.72 -1.04 -0.595067 -0.614143 -0.518385 177 184 204
0.88 0.728909 -1.12 -0.569475 -0.663314 -0.485503 169 175 197
0.88 0.72 -1.10612 -0.601711 -0.654225 -0.458185 169 175 197
0.8 0.740553 -1.04 -0.593345 -0.633634 -0.496437 169 175 197
0.80934 0.8 -1.12 -0.643053 -0.555084 -0.527603 169 175 197
0.8 0.8 -1.10711 -0.675032 -0.552279 -0.489203 169 175 197
0.890298 0.72 -1.12 -0.639931 -0.471711 -0.606611 174 180 201
0.8819 0.64 -1.04 -0.471245 -0.568206 -0.674589 184 191 211
0.927098 0.64 -1.12 -0.826893 -0.416601 -0.377745 184 191 211
0.88 0.8 -1.17093 -0.598818 -0.481579 -0.639921 173 180 199
0.906884 0.8 -1.2 -0.883382 -0.450245 -0.130061 177 183 205
0.92315 0.72 -1.2 -0.915955 -0.331678 -0.225868 177 183 205
0.96 0.64 -1.18657 -0.863752 -0.3676 -0.344677 185 194 213
0.96 0.65259 -1.2 -0.903022 -0.384041 -0.192522 185 194 213
0.965121 0.64 -1.2 -0.902357 -0.367021 -0.225938 184 191 211
0.88 0.835729 -1.2 -0.798877 -0.601091 -0.0220014 168 175 194
0.88 0.838658 -1.28 -0.730191 -0.67826 -0.0823729 168 175 194
0.918865 0.8 -1.28 -0.823279 -0.545499 -0.156979 168 175 194
0.949656 0.72 -1.28 -0.936365 -0.164229 -0.31024 181 188 207
0.96 0.64 -1.24283 -0.867765 -0.464593 0.176456 186 194 214
0.949089 0.64 -1.28 -0.92306 -0.37677 0.0774845 186 194 214
0.527852 0.64 -2.64 -0.949206 0.209033 0.235188 176 188 204
0.517504 0.56 -2.56 -0.975153 0.204736 0.0846118 176 188 204
0.542874 0.64 -2.56 -0.938304 0.297559 0.176193 176 188 204
0.513052 0.56 -2.64 -0.964392 0.124086 0.233561 176 188 204
0.503679 0.48 -2.56 -0.994848 -0.00282168 0.101334 169 181 198
0.494285 0.48 -2.64 -0.999509 -0.0300986 0.00866288 169 181 198
0.520969 0.4 -2.56 -0.998943 0.0397673 0.0230651 171 183 200
0.521655 0.4 -2.64 -0.980271 0.156116 0.121227 171 183 200
0.48 0.337312 -2.64 -0.789181 0.549932 0.273438 171 183 198
0.467904 0.32 -2.64 -0.793038 0.54157 0.278912 171 183 198
0.48 0.32 -2.60445 -0.804057 0.542875 0.242443 171 183 198
0.490633 0.32 -2.56 -0.858093 0.476141 0.192265 173 186 202
0.48 0.300929 -2.56 -0.849766 0.482278 0.21285 171 185 200
0.446188 0.24 -2.56 -0.85893 0.454598 0.235755 171 185 200
0.424523 0.24 -2.64 -0.840053 0.458923 0.289309 171 185 200
0.32 0.176832 -2.64 -0.61936 0.659353 0.426201 172 186 201
0.306256 0.16 -2.64 -0.875 0.155298 0.458539 172 186 201
0.32 0.16 -2.61459 -0.776146 0.134711 0.615995 172 186 201
0.4 0.16 -2.58049 -0.902411 0.0946965 0.420341 174 187 202
0.4 0.19634 -2.64 -0.621508 0.66417 0.415459 174 187 202
0.405816 0.16 -2.56 -0.959365 0.0535489 0.277041 169 183 199
0.32 0.135784 -2.64 -0.678973 -0.563314 0.470822 124 124 116
0.4 0.116583 -2.64 -0.658858 -0.584163 0.473982 121 116 102
0.418967 0.08 -2.64 -0.791637 -0.487245 0.36865 124 116 103
0.444458 0.08 -2.56 -0.790123 -0.573246 0.217015 124 116 103
0.48 0.0190579 -2.64 -0.757195 -0.634081 0.156836 100 102 90
0.48 0.0376678 -2.56 -0.7721 -0.618975 0.143988 100 102 90
0.50901 -0 -2.56 -0.784706 -0.603679 0.140741 97 100 89
0.494569 -0 -2.64 -0.787684 -0.60248 0.128731 97 100 89
0.48 0.596876 -2.72 -0.873635 0.318724 0.367664 176 187 204
0.466829 0.56 -2.72 -0.930925 -0.160016 0.328287 176 187 204
0.48 0.56 -2.69097 -0.886665 -0.105692 0.450171 176 187 204
0.496495 0.64 -2.72 -0.870277 0.317813 0.376315 174 185 202
0.48 0.53505 -2.72 -0.863019 -0.43496 0.256921 169 181 197
0.499925 0.48 -2.72 -0.981012 -0.157804 0.112752 170 183 199
0.499831 0.4 -2.72 -0.867556 0.438733 0.234222 172 184 200
0.48 0.373975 -2.72 -0.763894 0.596873 0.245374 171 184 199
0.436669 0.32 -2.72 -0.779481 0.53591 0.324362 171 184 199
0.4 0.254932 -2.72 -0.5227 0.62487 0.579933 172 184 200
0.376438 0.24 -2.72 -0.39113 0.719121 0.574354 172 184 200
0.4 0.24 -2.70443 -0.516409 0.642198 0.566482 172 184 200
0.32 0.220598 -2.72 -0.464176 0.795619 0.389269 172 185 199
0.264408 0.16 -2.72 -0.908076 0.0936142 0.408208 172 185 199
0.32 0.0853362 -2.72 -0.42194 -0.788874 0.446816 123 122 113
0.331241 0.08 -2.72 -0.38274 -0.797216 0.466858 117 113 99
0.4 0.08 -2.67761 -0.657596 -0.560155 0.503778 117 113 99
0.4 0.044648 -2.72 -0.484331 -0.723299 0.492201 101 103 92
0.48 0.00371284 -2.72 -0.746908 -0.635142 0.196781 99 101 91
0.48303 -0 -2.72 -0.760313 -0.620384 0.192478 97 100 90
0.48 0.64 -2.76043 -0.899931 0.298209 0.318114 173 184 201
0.467989 0.64 -2.8 -0.952045 0.137794 0.273173 173 184 201
0.464906 0.56 -2.8 -0.891073 -0.300186 0.340406 173 184 201
0.48 0.533381 -2.8 -0.856576 -0.389792 0.338141 168 181 197
0.494362 0.48 -2.8 -0.885883 -0.0629411 0.459618 171 183 199
0.48 0.411345 -2.8 -0.767851 0.314941 0.557868 170 182 198
0.474913 0.4 -2.8 -0.735428 0.387326 0.55599 170 182 198
0.48 0.4 -2.793 -0.755634 0.395764 0.521908 170 182 198
0.402235 0.32 -2.8 -0.7232 0.55645 0.409078 172 185 200
0.24 0.241787 -2.8 -0.794419 0.550737 0.256098 170 184 197
0.2388 0.24 -2.8 -0.810053 0.528967 0.252998 170 184 197
0.24 0.24 -2.7962 -0.795282 0.537607 0.280189 170 184 197
0.32 0.24 -2.7643 -0.41807 0.739996 0.5269 172 185 200
0.32 0.268499 -2.8 -0.346015 0.758791 0.551824 172 185 200
0.4 0.317079 -2.8 -0.718219 0.559376 0.413837 172 186 202
0.24 0.16 -2.78036 -0.870836 -0.375039 0.317789 168 182 195
0.233683 0.16 -2.8 -0.807607 -0.531948 0.254565 168 182 195
0.24 0.151891 -2.8 -0.764794 -0.596996 0.242251 126 121 104
0.296754 0.08 -2.8 -0.652927 -0.734966 0.183062 123 121 110
0.32 0.08 -2.72969 -0.439894 -0.789441 0.428107 123 121 110
0.32 0.0613361 -2.8 -0.610805 -0.769817 0.185201 101 104 92
0.388593 -0 -2.8 -0.65548 -0.714341 0.245079 100 102 93
0.4 -0 -2.77286 -0.564594 -0.705953 0.427625 100 102 93
0.48 -0 -2.73125 -0.687518 -0.687084 0.235021 99 100 91
0.4 0.577006 -2.88 -0.76059 0.485525 0.431008 173 185 200
0.388723 0.56 -2.88 -0.865336 0.1075 0.489527 173 185 200
0.4 0.56 -2.8608 -0.845673 0.0663659 0.529559 173 185 200
0.434812 0.64 -2.88 -0.809432 0.370589 0.455504 171 182 199
0.4 0.536741 -2.88 -0.792521 -0.416502 0.445463 169 182 197
0.43018 0.48 -2.88 -0.870431 0.108623 0.480158 168 180 196
0.48 0.48 -2.82146 -0.801284 -0.0325665 0.597397 168 180 196
0.4 0.438648 -2.88 -0.679115 0.548059 0.488298 171 184 199
0.367585 0.4 -2.88 -0.664336 0.485805 0.568024 171 184 199
0.4 0.4 -2.84894 -0.604604 0.444266 0.661122 171 184 199
0.4 0.32 -2.80396 -0.713759 0.564309 0.414854 171 184 199
0.323911 0.32 -2.88 -0.55525 0.731307 0.396089 171 184 199
0.24 0.274755 -2.88 -0.744761 0.61424 0.260847 169 183 196
0.219541 0.24 -2.88 -0.901934 0.367174 0.227374 169 183 196
0.32 0.317111 -2.88 -0.545315 0.742353 0.389286 171 185 199
0.211169 0.16 -2.88 -0.907227 -0.336218 0.25278 167 180 194
0.24 0.121707 -2.88 -0.755578 -0.61544 0.224354 127 120 104
0.278204 0.08 -2.88 -0.656454 -0.730672 0.187581 122 121 109
0.32 0.0480995 -2.88 -0.653093 -0.739585 0.162736 102 104 92
0.363326 -0 -2.88 -0.734699 -0.649312 0.196499 101 103 92
0.4 0.64 -2.95229 -0.658326 0.567509 0.49451 171 184 200
0.393918 0.64 -2.96 -0.661843 0.551592 0.507652 171 184 200
0.348232 0.56 -2.96 -0.849591 -0.091073 0.51952 171 184 200
0.32 0.503841 -2.96 -0.617893 0.590625 0.519008 170 182 197
0.31133 0.48 -2.96 -0.934164 0.209923 0.288566 170 182 197
0.32 0.48 -2.92336 -0.629725 0.369628 0.683243 170 182 197
0.4 0.487908 -2.96 -0.589018 -0.637791 0.496267 169 182 197
0.374282 0.48 -2.96 0.38301 0.252795 0.88848 169 182 197
0.409091 0.48 -2.96 -0.744396 0.0469087 0.666088 169 181 197
0.32 0.412618 -2.96 -0.192261 -0.322303 0.926907 170 184 198
0.322822 0.4 -2.96 -0.723162 0.470298 0.505822 171 183 199
0.4 0.473226 -2.96 -0.529652 0.694061 0.487594 171 183 199
0.32 0.395552 -2.96 -0.724018 0.463634 0.510727 171 184 198
0.263238 0.32 -2.96 -0.448948 0.788083 0.421155 171 184 198
0.32 0.32 -2.88561 -0.559313 0.73004 0.392697 171 184 198
0.24 0.309882 -2.96 -0.450376 0.817298 0.359422 169 182 195
0.199169 0.24 -2.96 -0.924581 0.284372 0.253541 169 182 195
0.189432 0.16 -2.96 -0.939499 -0.223502 0.259593 166 179 192
0.24 0.0903156 -2.96 -0.705721 -0.661013 0.254987 126 119 103
0.250078 0.08 -2.96 -0.678497 -0.689054 0.254651 120 119 108
0.32 0.0294817 -2.96 -0.714156 -0.674734 0.186319 102 104 92
0.343002 -0 -2.96 -0.772041 -0.609867 0.178926 101 103 92
0.32 0.629181 -3.04 -0.782893 0.346345 0.51684 169 181 196
0.296378 0.56 -3.04 -0.796802 0.283366 0.533675 169 181 196
0.32 0.56 -3.00457 -0.76186 0.26596 0.590622 169 181 196
0.324971 0.64 -3.04 -0.776267 0.356783 0.519726 171 183 198
0.275837 0.48 -3.04 -0.827169 0.153536 0.540572 169 181 196
0.4 0.48 -2.96912 -0.691518 0.0647099 0.719455 169 182 197
0.32 0.4 -2.96402 -0.716527 0.462205 0.522451 170 183 197
0.267434 0.4 -3.04 -0.707522 0.406983 0.577735 170 183 197
0.24 0.370628 -3.04 -0.66573 0.548311 0.506121 170 182 195
0.205737 0.32 -3.04 -0.808854 0.423856 0.407556 170 182 195
0.24 0.32 -2.98322 -0.500937 0.758272 0.417237 170 182 195
0.181236 0.24 -3.04 -0.951434 0.216402 0.218959 168 182 194
0.167982 0.16 -3.04 -0.955433 -0.115761 0.271564 166 178 190
0.24 0.08 -2.98627 -0.681111 -0.685988 0.255945 125 118 101
0.215253 0.08 -3.04 -0.583967 -0.771586 0.252266 125 118 101
0.24 0.0651361 -3.04 -0.516386 -0.825586 0.227493 103 105 94
0.32 0.00774897 -3.04 -0.644204 -0.749347 0.153233 102 104 92
0.328868 -0 -3.04 -0.650835 -0.744806 0.147236 101 103 92
0.16 0.622695 -3.12 -0.555724 0.225257 0.800269 169 179 193
0.152543 0.56 -3.12 -0.915834 0.0703354 0.395349 169 179 193
0.16 0.56 -3.10303 -0.810019 0.123112 0.573335 169 179 193
0.24 0.56 -3.11326 -0.303063 0.683134 0.664441 163 174 186
0.24 0.565913 -3.12 -0.279058 0.700906 0.656397 163 174 186
0.291794 0.64 -3.12 -0.73972 0.509728 0.439308 168 181 194
0.32 0.64 -3.04757 -0.785725 0.355704 0.506075 168 181 194
0.16 0.48 -3.09711 -0.829488 0.0274305 0.55785 168 178 193
0.150962 0.48 -3.12 -0.930348 0.0147723 0.366381 168 178 193
0.24 0.48 -3.08467 -0.532505 0.181349 0.826772 165 177 189
0.16 0.4 -3.09719 -0.775226 -0.0550944 0.629276 167 178 191
0.146963 0.4 -3.12 -0.880714 -0.030642 0.472656 167 178 191
0.24 0.4 -3.07099 -0.648726 0.352324 0.674553 169 180 193
0.16 0.32 -3.11567 -0.885143 -0.0992634 0.454608 168 178 191
0.157817 0.32 -3.12 -0.888248 -0.100106 0.448324 168 178 191
0.16 0.299826 -3.12 -0.879433 -0.0934744 0.466755 170 181 195
0.163287 0.24 -3.12 -0.962079 0.128138 0.240802 167 180 191
0.16 0.222378 -3.12 -0.921096 0.237938 0.308168 166 177 191
0.123241 0.16 -3.12 -0.810132 -0.192324 0.553803 166 177 191
0.16 0.16 -3.06823 -0.92309 -0.0976154 0.371989 166 177 191
0.16 0.12156 -3.12 -0.748998 -0.542592 0.380257 127 113 101
0.183769 0.08 -3.12 -0.724238 -0.627326 0.286256 124 117 101
0.24 0.0431792 -3.12 -0.53661 -0.820439 0.197308 103 105 94
0.305981 -0 -3.12 -0.538681 -0.824648 0.172562 102 104 92
0.32 -0 -3.07562 -0.581757 -0.795227 0.170802 102 104 92
0.16 0.64 -3.12494 -0.56223 0.257203 0.785967 169 178 192
0.126394 0.64 -3.2 -0.921226 0.0805624 0.380595 169 178 192
0.122088 0.56 -3.2 -0.936031 0.0287701 0.350741 169 178 192
0.24 0.64 -3.18155 -0.167942 0.629953 0.758257 155 166 177
0.122289 0.48 -3.2 -0.93231 0.046666 0.358638 168 178 193
0.110298 0.4 -3.2 -0.909894 0.00757779 0.414771 167 177 191
0.1219 0.32 -3.2 -0.911989 0.0249939 0.409453 168 179 192
0.16 0.24 -3.13334 -0.949382 0.131151 0.285434 170 182 195
0.105639 0.24 -3.2 -0.800375 0.207156 0.562571 170 182 195
0.08 0.1798 -3.2 -0.841545 0.289314 0.456179 133 142 154
0.0736915 0.16 -3.2 -0.751606 -0.540849 0.377586 133 142 154
0.08 0.16 -3.18744 -0.838369 -0.33542 0.429686 133 142 154
0.08 0.155317 -3.2 -0.573249 -0.76742 0.287145 118 114 101
0.151931 0.08 -3.2 -0.530713 -0.823618 0.199993 126 113 100
0.16 0.08 -3.17859 -0.591875 -0.769625 0.239504 126 113 100
0.16 0.0750403 -3.2 -0.513064 -0.836193 0.193768 103 105 94
0.24 0.0258245 -3.2 -0.528268 -0.830356 0.177318 103 105 94
0.280074 -0 -3.2 -0.53354 -0.82794 0.172776 102 104 93
0.72 0.286852 -0.56 -0.756055 0.432466 0.491277 93 90 107
0.709475 0.24 -0.56 -0.964985 0.216778 0.147686 93 90 107
0.72 0.24 -0.491229 -0.964985 0.216778 0.147686 93 90 107
0.88 0.214636 -0.48 -0.166987 -0.981593 0.0926803 33 33 44
0.96 0.193474 -0.56 -0.148476 -0.984752 0.0906594 33 33 44
0.96 0.197079 -0.48 -0.184303 -0.981454 0.0527292 33 33 44
0.88 0.20324 -0.56 -0.134058 -0.983901 0.118187 33 33 44
1.04 0.179572 -0.56 -0.162533 -0.984894 0.059718 26 26 36
1.04 0.185953 -0.48 -0.137315 -0.987392 0.0787521 26 26 36
0.72 0.4 -0.580315 -0.637922 -0.024872 0.769699 100 106 134
0.744452 0.4 -0.56 -0.643531 -0.0214635 0.765119 100 106 134
0.746321 0.48 -0.56 -0.628015 0.00903203 0.778149 100 106 134
0.72 0.48 -0.58114 -0.626165 0.00804232 0.779649 100 106 134
0.72 0.32 -0.586951 -0.656147 0.316662 0.684979 64 67 86
0.74786 0.32 -0.56 -0.66019 0.313661 0.682471 64 67 86
0.88 0.393901 -0.56 -0.0451664 0.56877 0.821255 148 81 143
0.88 0.4 -0.564224 -0.0467321 0.568729 0.821196 148 81 143
0.852723 0.4 -0.56 0.12628 0.564794 0.815513 148 81 143
0.899771 0.4 -0.56 -0.172982 0.560768 0.809701 165 114 150
0.8 0.215094 -0.56 -0.186727 -0.98073 0.0574633 32 31 44
0.88 0.195175 -0.64 -0.168691 -0.982479 0.0792318 32 31 44
0.8 0.213712 -0.64 -0.225699 -0.974052 0.0168287 32 31 44
0.96 0.182791 -0.64 -0.116672 -0.985443 0.123652 34 32 43
1.04 0.174879 -0.64 -0.134591 -0.986368 0.0946761 25 24 35
1.17309 0.16 -0.64 -0.713001 -0.450234 0.537512 55 54 57
1.2 0.117379 -0.64 -0.662788 -0.496427 0.5606 55 54 57
1.2 0.16 -0.6043 -0.682309 -0.48016 0.551271 55 54 57
1.23594 0.08 -0.64 -0.592802 -0.546246 0.591778 48 44 45
1.28 0.08 -0.595863 -0.591151 -0.576874 0.563699 48 44 45
1.28 0.109483 -0.56 -0.605959 -0.591799 0.53159 48 44 45
1.23626 0.16 -0.56 -0.642871 -0.556642 0.526181 48 44 45
1.28 0.0294711 -0.64 -0.602266 -0.52517 0.601226 52 49 45
0.0776876 1.28 -3.28 -0.970306 -0.184131 0.15685 126 133 138
0.08 1.26796 -3.28 -0.949975 -0.229152 0.212219 126 133 138
0.08 1.28 -3.26496 -0.936469 -0.273841 0.219174 126 133 138
0.130526 1.28 -3.2 -0.827546 -0.252874 0.501221 134 141 148
0.102166 1.2 -3.28 -0.89298 -0.10758 0.437052 134 141 148
0.144476 1.2 -3.2 -0.883675 -0.0264527 0.467353 134 141 148
0.174524 1.2 -3.2 0.879063 0.0111324 0.476575 130 138 146
0.222533 1.28 -3.28 0.892341 -0.058818 0.447514 130 138 146
0.176102 1.28 -3.2 0.864761 -0.0170592 0.501894 130 138 146
0.216728 1.2 -3.28 0.898369 0.078659 0.43214 130 138 146
0.32 1.2103 -3.28 -0.0282316 0.368512 0.929194 142 151 160
0.3152 1.2 -3.28 -0.627275 0.317441 0.711166 142 151 160
0.32 1.2 -3.27574 0.026627 0.423895 0.90532 142 151 160
0.324476 1.2 -3.28 0.643975 0.334506 0.688042 148 157 167
0.135516 1.12 -3.2 -0.893355 0.072767 0.443421 143 150 158
0.0968101 1.12 -3.28 -0.909856 0.0839666 0.406339 143 150 158
0.179848 1.12 -3.2 0.75418 0.406278 0.515898 133 142 150
0.24 1.12 -3.27678 0.30619 0.448643 0.839623 133 142 150
0.24 1.12681 -3.28 0.336129 0.41262 0.846618 133 142 150
0.32 1.12 -3.2128 0.114488 0.758771 0.641217 150 160 171
0.4 1.15549 -3.28 0.400154 0.664715 0.630897 155 164 177
0.4 1.12 -3.24641 0.370462 0.496043 0.785302 155 164 177
0.12984 1.04 -3.2 -0.880032 0.0888666 0.466526 153 160 172
0.0859061 1.04 -3.28 -0.927577 0.142381 0.34544 153 160 172
0.24 1.06956 -3.2 0.13043 0.828638 0.544377 136 146 155
0.32 1.11086 -3.2 0.166035 0.804213 0.570678 156 167 178
0.388098 1.04 -3.2 0.879136 0.175781 0.442968 168 178 193
0.4 1.04 -3.22053 0.830729 0.0741739 0.551713 168 178 193
0.08 1.00372 -3.28 -0.95244 0.11771 0.281075 154 163 172
0.0758976 0.96 -3.28 -0.965952 -0.0276009 0.257246 154 163 172
0.08 0.96 -3.26506 -0.948987 -0.0428694 0.312387 154 163 172
0.121628 0.96 -3.2 -0.825377 -0.245475 0.508424 165 174 185
0.386497 0.96 -3.28 0.931609 -0.0855884 0.35324 183 195 210
0.4 0.988915 -3.28 0.841002 -0.392746 0.37211 183 195 210
0.385704 0.96 -3.2 0.974117 -0.161367 0.158293 183 195 210
0.08 0.927236 -3.28 -0.852989 -0.231393 0.467832 163 173 182
0.104253 0.88 -3.28 -0.687099 -0.121519 0.71633 174 184 196
0.16 0.88 -3.23099 0.139615 -0.498029 0.855847 174 184 196
0.16 0.907431 -3.2 -0.212832 -0.789138 0.576163 174 184 196
0.201032 0.88 -3.28 0.633786 -0.634612 0.442247 148 157 170
0.24 0.898282 -3.28 -0.0409189 -0.970483 0.237674 148 157 170
0.24 0.912835 -3.2 -0.134342 -0.974935 0.177353 148 157 170
0.276073 0.88 -3.28 -0.690403 -0.668772 0.275841 149 159 174
0.32 0.88 -3.20715 -0.198347 -0.238176 0.950753 149 159 174
0.32 0.883217 -3.2 0.229274 -0.891505 0.390708 149 159 174
0.4 0.918126 -3.28 0.662763 0.42463 0.616794 196 206 222
0.4 0.88 -3.25291 0.245734 0.677339 0.693416 196 206 222
0.48 0.88 -3.27052 -0.24823 0.795084 0.553375 201 212 227
0.48 0.886614 -3.28 -0.218372 0.780192 0.586186 201 212 227
0.54795 0.96 -3.28 -0.703061 0.63023 0.329417 202 213 229
0.56 0.96 -3.24083 -0.856929 0.468247 0.215447 202 213 229
0.523118 0.88 -3.2 -0.670228 0.645577 0.366095 202 213 229
0.56 0.940497 -3.2 -0.937324 0.314427 0.150199 202 213 229
0.565196 0.96 -3.2 -0.959066 0.255526 0.122063 201 212 229
0.08 0.801524 -3.28 -0.965178 0.0740711 0.250889 169 177 189
0.0798893 0.8 -3.28 -0.966131 -0.0990374 0.238291 169 177 189
0.08 0.8 -3.27955 -0.980933 0.0541527 0.18665 169 177 189
0.16 0.8 -3.21868 0.405122 0.274115 0.872202 179 189 202
0.185015 0.8 -3.28 0.940883 0.0328523 0.337135 180 189 202
0.32 0.870281 -3.2 -0.335039 0.544172 0.769172 192 202 217
0.307629 0.8 -3.2 -0.952587 0.0876084 0.29138 192 202 217
0.291051 0.8 -3.28 -0.971861 0.0267323 0.234033 192 202 217
0.4 0.838647 -3.2 0.1204 0.774471 0.621046 195 205 221
0.48 0.845906 -3.2 -0.330591 0.82932 0.450486 198 208 224
0.08 0.798924 -3.28 -0.96617 -0.0994202 0.237971 167 176 188
0.0961974 0.72 -3.28 -0.900104 -0.0862322 0.427056 175 185 198
0.144016 0.72 -3.2 -0.815698 0.311318 0.487564 175 185 198
0.16 0.754569 -3.2 -0.16667 0.40629 0.898415 175 185 198
0.167601 0.72 -3.2 0.833517 0.372422 0.408107 142 151 163
0.207089 0.72 -3.28 0.733154 0.534816 0.420069 142 151 163
0.293284 0.72 -3.2 -0.879192 0.40187 0.255972 180 191 206
0.267056 0.72 -3.28 -0.790418 0.531375 0.30476 180 191 206
0.126394 0.64 -3.2 -0.895579 0.0963085 0.434353 171 180 194
0.0973307 0.64 -3.28 -0.953654 -0.0135099 0.300602 171 180 194
0.24 0.68953 -3.28 -0.260551 0.867144 0.424471 138 147 158
0.24 0.650846 -3.2 -0.106736 0.901752 0.418868 138 147 158
0.08 1.2 -3.32929 -0.955431 -0.0723675 0.286205 129 136 142
0.0733553 1.2 -3.36 -0.982806 -0.0334213 0.181594 129 136 142
0.0711115 1.28 -3.36 -0.994891 -0.0279035 0.0970242 129 136 142
0.24 1.2 -3.3396 0.525036 0.194085 0.828654 135 142 150
0.24 1.28 -3.31629 0.689726 -0.167399 0.704454 135 142 150
0.32 1.28 -3.29718 -0.0167167 0.0218502 0.999621 143 152 162
0.4 1.2 -3.33352 0.449055 0.393249 0.802312 149 159 170
0.4 1.28 -3.31923 0.261842 -0.169721 0.95007 149 159 170
0.08 1.12 -3.31957 -0.950846 0.0628461 0.30322 136 143 149
0.0712728 1.12 -3.36 -0.979312 0.0414799 0.198058 136 143 149
0.08 1.04 -3.29701 -0.946114 0.127872 0.297519 147 154 162
0.0685227 1.04 -3.36 -0.974292 0.0701336 0.214097 147 154 162
0.0608658 0.96 -3.36 -0.981646 -0.00797267 0.190545 157 165 175
0.4 0.96 -3.309 0.858012 0.0387906 0.512162 179 191 207
0.08 0.88 -3.30421 -0.826284 -0.0955511 0.555091 165 174 185
0.0674834 0.88 -3.36 -0.974874 -0.0026044 0.222743 165 174 185
0.231958 0.88 -3.36 0.669944 -0.73735 0.0865457 155 166 178
0.24 0.886546 -3.36 0.0331339 -0.992891 0.114319 155 166 178
0.248189 0.88 -3.36 -0.668749 -0.734333 0.116319 158 169 184
0.48 0.96 -3.35157 -0.0922978 0.695235 0.712832 201 212 227
0.0620634 0.8 -3.36 -0.97278 -0.000768128 0.23173 167 177 189
0.20888 0.8 -3.36 0.955061 0.11475 0.273297 178 188 201
0.274145 0.8 -3.36 -0.966258 0.107125 0.234242 190 200 215
0.08 0.72 -3.31805 -0.931085 -0.131047 0.340451 164 174 186
0.0672315 0.72 -3.36 -0.955575 -0.079911 0.283708 164 174 186
0.24 0.72 -3.34146 -0.141596 0.81565 0.560951 133 142 155
0.24 0.733781 -3.36 -0.101587 0.798166 0.59381 133 142 155
0.08 0.64 -3.34195 -0.939088 -0.0657558 0.337328 164 175 186
0.0731925 0.64 -3.36 -0.93518 -0.0633235 0.348466 164 175 186
0.0620767 1.28 -3.44 -0.988628 -0.0161851 0.149509 132 139 145
0.0630742 1.2 -3.44 -0.987336 0.03261 0.155258 132 139 145
0.0548238 1.12 -3.44 -0.97612 0.0987876 0.193472 139 146 153
0.0454945 1.04 -3.44 -0.974742 0.0616093 0.214666 149 158 166
0.0472069 0.96 -3.44 -0.983715 -0.0180194 0.178829 158 168 177
0.0459455 0.88 -3.44 -0.972912 0.0400235 0.227683 167 176 187
0.23614 0.88 -3.44 0.808319 -0.584129 0.073583 166 176 189
0.24 0.884942 -3.44 0.0958275 -0.988832 0.114141 166 176 189
0.244688 0.88 -3.44 -0.755298 -0.649196 0.0898339 185 196 210
0.0422021 0.8 -3.44 -0.966968 0.0224877 0.253904 166 175 187
0.229673 0.8 -3.44 0.886093 0.395963 0.240941 160 169 183
0.252367 0.8 -3.44 -0.856623 0.422136 0.296644 187 197 212
0.042029 0.72 -3.44 -0.949154 0.00297347 0.314798 163 173 185
0.24 0.782546 -3.44 0.139813 0.887398 0.439291 137 146 157
0.0415993 0.64 -3.44 -0.926913 0.0345467 0.373682 165 175 187
0.0475013 1.28 -3.52 -0.989541 -0.0277506 0.141556 133 140 146
0.0501457 1.2 -3.52 -0.981701 0.0533207 0.182809 133 140 146
0.0409662 1.12 -3.52 -0.973012 0.11685 0.19898 142 149 157
0.0303549 1.04 -3.52 -0.979525 0.0425617 0.196773 152 160 169
0.0343205 0.96 -3.52 -0.981526 0.00491638 0.191266 160 170 179
0.0283354 0.88 -3.52 -0.971146 0.0810232 0.224298 167 177 189
0.24 0.88 -3.47293 0.0169187 -0.877338 0.479575 177 186 199
0.020289 0.8 -3.52 -0.953067 0.0952725 0.287378 164 173 185
0.24 0.8 -3.47639 0.0386739 0.672684 0.738919 157 166 178
0.0142494 0.72 -3.52 -0.919999 0.095701 0.380057 163 173 185
0.00229923 0.64 -3.52 -0.871544 0.130189 0.472718 165 175 187
0.0383036 1.28 -3.6 -0.987435 0.0612012 0.145691 135 142 148
0.0308177 1.2 -3.6 -0.976854 0.102246 0.18789 135 142 148
0.0226447 1.12 -3.6 -0.973679 0.113399 0.197712 144 152 160
0.0130402 1.04 -3.6 -0.980215 0.035266 0.19477 154 163 172
0.0172406 0.96 -3.6 -0.977575 0.0182063 0.209798 163 172 182
0.00968664 0.88 -3.6 -0.962355 0.132513 0.237305 167 176 187
0 0.820298 -3.6 -0.960585 0.155855 0.230186 164 173 185
0 0.8 -3.58604 -0.95259 0.148074 0.265795 164 173 185
0 0.72 -3.5536 -0.920603 0.109041 0.374968 163 173 185
0 0.64 -3.52422 -0.87159 0.130333 0.472593 165 175 186
0.0289715 1.28 -3.68 -0.980632 0.122079 0.153161 138 145 151
0.0181674 1.2 -3.68 -0.972121 0.135505 0.191363 138 145 151
0.00757481 1.12 -3.68 -0.965536 0.113132 0.234394 148 156 164
0 1.04446 -3.68 -0.980017 0.0982745 0.172944 156 165 175
0 1.04 -3.67741 -0.982596 0.0784518 0.168377 156 165 175
0 0.997312 -3.68 -0.985084 -0.0101556 0.171772 164 173 184
0.000386724 0.96 -3.68 -0.957687 0.111312 0.265414 164 173 184
0 0.956951 -3.68 -0.956882 0.121353 0.263912 165 175 187
0 0.88 -3.6386 -0.959887 0.14362 0.240813 165 175 187
0.0149195 1.28 -3.76 -0.967312 0.173277 0.185155 141 148 155
0 1.20285 -3.76 -0.962515 0.186126 0.197284 141 148 155
0 1.2 -3.75732 -0.962128 0.183761 0.201352 141 148 155
0 1.12 -3.70863 -0.961218 0.114157 0.251054 150 158 167
0 0.96 -3.68139 -0.957761 0.109666 0.265833 165 175 185
0.000690508 1.28 -3.84 -0.970256 0.178385 0.163654 144 151 159
0 1.27624 -3.84 -0.970393 0.177989 0.163272 144 151 159
0 1.28 -3.84355 -0.913279 0.279549 0.296266 138 144 150
-0.0247995 1.28 -3.92 -0.925921 0.228854 0.300494 138 144 150
0 1.27624 -3.84 -0.91384 0.277622 0.29635 138 144 150
-0.0212297 1.2 -3.84 -0.938604 0.210615 0.273247 138 144 150
-0.0436034 1.2 -3.92 -0.931868 0.217508 0.290365 138 144 150
-0.0363891 1.12 -3.84 -0.941305 0.132248 0.310573 144 152 159
-0.0642339 1.12 -3.92 -0.943972 0.134743 0.301266 144 152 159
-0.0408187 1.04 -3.84 -0.937047 0.145431 0.317479 150 158 167
-0.0676444 1.04 -3.92 -0.9271 0.206046 0.313099 150 158 167
-0.08 1.00218 -3.92 -0.811533 0.382674 0.441559 143 151 158
-0.106122 0.96 -3.92 -0.736681 0.43011 0.52183 143 151 158
-0.08 0.96 -3.88316 -0.796537 0.416238 0.438491 143 151 158
-0.0624241 0.96 -3.84 -0.873314 0.340813 0.348094 152 162 171
-0.08 0.918774 -3.84 -0.810684 0.410467 0.417503 144 153 161
-0.10145 0.88 -3.84 -0.809649 0.365865 0.458925 144 153 161
-0.144208 0.88 -3.92 -0.858933 0.260337 0.440974 144 153 161
-0.16 0.811548 -3.92 -0.853591 0.244476 0.460016 137 141 141
-0.163417 0.8 -3.92 -0.851412 0.241766 0.465454 137 141 141
-0.16 0.8 -3.9137 -0.856252 0.238209 0.458354 137 141 141
-0.127446 0.8 -3.84 -0.893511 0.201814 0.401135 149 158 166
-0.16 0.72 -3.88426 -0.900036 0.13083 0.415714 144 149 150
-0.179504 0.72 -3.92 -0.87468 0.123436 0.468719 144 149 150
-0.143833 0.72 -3.84 -0.932428 0.129635 0.337302 152 160 169
-0.16 0.64 -3.86753 -0.930725 0.0813959 0.356546 147 154 155
-0.185767 0.64 -3.92 -0.899525 0.057909 0.433014 147 154 155
-0.151005 0.64 -3.84 -0.947119 0.0849095 0.309444 154 163 172
-0.0528349 1.28 -4 -0.929692 0.195391 0.312241 140 147 153
-0.0689908 1.2 -4 -0.93934 0.20187 0.277288 140 147 153
-0.16 1.12601 -4 -0.613161 0.682614 0.397582 114 116 114
-0.166154 1.12 -4 -0.770161 0.440416 0.461396 114 116 114
-0.16 1.12 -3.98885 -0.78398 0.367597 0.500249 114 116 114
-0.08 1.12 -3.97398 -0.689036 0.35735 0.6305 135 143 149
-0.08 1.15236 -4 -0.694323 0.469704 0.545247 135 143 149
-0.16 1.09843 -4 -0.750797 -0.27135 0.602223 126 129 129
-0.128858 1.04 -4 -0.674723 -0.0399141 0.736991 141 149 155
-0.08 1.04 -3.95733 -0.833662 0.250086 0.492406 141 149 155
-0.159019 0.96 -4 -0.813544 0.323403 0.483277 143 152 160
-0.16 0.957535 -4 -0.811456 0.325039 0.485683 136 140 140
-0.190077 0.88 -4 -0.820312 0.26555 0.506528 136 140 140
-0.16 0.88 -3.95156 -0.850621 0.247465 0.463902 136 140 140
-0.212081 0.8 -4 -0.860871 0.146707 0.487216 142 148 148
-0.219614 0.72 -4 -0.908403 0.040291 0.41615 148 154 155
-0.219956 0.64 -4 -0.915545 0.00391851 0.402197 150 157 157
-0.08 1.2795 -4.08 -0.938042 0.143682 0.315331 133 140 144
-0.156149 1.2 -4.08 -0.217928 0.766411 0.604253 133 140 144
-0.08 1.2 -4.03879 -0.819586 0.323542 0.472863 133 140 144
-0.0799242 1.28 -4.08 -0.939969 0.141421 0.310577 141 149 156
-0.24 1.13538 -4.08 -0.544126 0.501717 0.672464 38 39 35
-0.253968 1.12 -4.08 -0.655132 0.0175386 0.755311 38 39 35
-0.24 1.12 -4.06855 -0.643439 0.0415991 0.764366 38 39 35
-0.16 1.19898 -4.08 -0.21495 0.788962 0.575617 122 126 124
-0.24 1.1028 -4.08 -0.620547 -0.479759 0.620285 55 55 51
-0.193774 1.04 -4.08 -0.847737 -0.192857 0.494114 130 134 135
-0.16 1.04 -4.0269 -0.711312 -0.109925 0.694227 130 134 135
-0.16 0.96 -4.00165 -0.812792 0.323964 0.484165 134 137 138
-0.215091 0.96 -4.08 -0.811852 0.249726 0.527762 134 137 138
-0.236628 0.88 -4.08 -0.85171 0.230522 0.470585 137 140 141
-0.24 0.86755 -4.08 -0.809905 0.257066 0.527229 136 138 127
-0.280456 0.8 -4.08 -0.570693 0.256494 0.780077 136 138 127
