ply
format ascii 1.0
comment Generated by the ZED SDK.
element vertex 781
property float32 x
property float32 y
property float32 z
property float32 nx
property float32 ny
property float32 nz
property uchar red
property uchar green
property uchar blue
end_header
0.48 -0.539318 -0.64 0.00592001 0.999982 0.00108319 120 120 121
0.66 -0.546713 -0.98 0.0663944 0.996956 0.0408654 99 99 102
0.64 -0.545886 -0.96 0.064937 0.997608 0.0236762 99 99 102
0.66 -0.54708 -0.96 0.0478268 0.998823 0.00809872 99 99 102
0.64 -0.545303 -0.98 0.0748627 0.99573 0.0540141 99 99 102
0.68 -0.547843 -0.98 0.0395433 0.999176 0.00914907 95 94 99
0.68 -0.547393 -0.96 0.0257087 0.999484 -0.0192355 95 94 99
0.7 -0.548428 -0.98 0.0251541 0.999683 -0.000156245 97 96 101
0.7 -0.548241 -0.96 0.0200547 0.999676 -0.0157007 97 96 101
0.72 -0.548637 -0.98 0.00360052 0.999835 -0.0178224 100 100 104
0.72 -0.547942 -0.96 -0.000584804 0.99953 -0.0306475 100 100 104
0.74 -0.548749 -0.98 -0.00240615 0.999923 -0.0122055 96 95 99
0.74 -0.548381 -0.96 0.00448991 0.999853 -0.0165356 96 95 99
0.76 -0.548415 -0.98 0.00333588 0.999944 -0.010015 100 100 103
0.76 -0.548196 -0.96 0.00587501 0.999913 -0.0118376 100 100 103
0.78 -0.548871 -0.98 0.0197255 0.999791 -0.00541199 95 95 97
0.78 -0.54858 -0.96 0.0265449 0.999603 -0.00944514 95 95 97
0.8 -0.549346 -0.98 0.0288399 0.999548 0.00850162 102 101 104
0.8 -0.549462 -0.96 0.0440342 0.999013 0.00577893 102 101 104
0.66 -0.545313 -1 0.077594 0.994406 0.0716724 99 99 103
0.64 -0.543526 -1 0.0502049 0.998298 0.0296872 99 99 103
0.68 -0.547157 -1 0.065411 0.994313 0.084041 97 96 101
0.7 -0.548034 -1 0.0382272 0.996882 0.0690257 94 93 98
0.72 -0.548832 -1 0.0234182 0.998392 0.0516305 96 95 100
0.74 -0.548744 -1 0.00131318 0.99985 0.0172892 97 96 99
0.76 -0.548585 -1 0.00318008 0.999991 -0.0028597 97 97 99
0.78 -0.548939 -1 0.0101372 0.999948 -0.00141756 89 89 91
0.8 -0.548919 -1 0.00519538 0.999985 0.00192303 95 95 97
0.66 -0.544336 -1.02 0.0102522 0.999718 -0.0214295 89 89 92
0.64 -0.545672 -1.02 -0.0220159 0.999629 -0.0160468 89 89 92
0.68 -0.544531 -1.02 0.0502112 0.998229 -0.031909 90 89 93
0.7 -0.54579 -1.02 0.0449887 0.998096 -0.0422028 94 93 98
0.72 -0.546315 -1.02 0.039026 0.998582 -0.0362025 96 95 100
0.74 -0.547756 -1.02 0.0310457 0.999441 -0.0123797 83 82 87
0.76 -0.548597 -1.02 0.01261 0.999783 0.0166021 91 91 95
0.78 -0.548855 -1.02 0.016134 0.999327 0.0329532 93 92 96
0.8 -0.549021 -1.02 0.00597608 0.999847 0.0164358 90 89 93
0.66 -0.544622 -1.04 0.0932264 0.995161 0.0310244 77 76 79
0.64 -0.542332 -1.04 0.11222 0.98011 0.163679 77 76 79
0.68 -0.547931 -1.04 0.0898099 0.987499 -0.129535 86 86 89
0.7 -0.549815 -1.04 0.063031 0.979856 -0.189496 86 85 89
0.72 -0.550816 -1.04 0.015094 0.998452 -0.0535248 89 88 94
0.74 -0.550305 -1.04 -0.0352114 0.99884 0.0328583 89 88 93
0.76 -0.548515 -1.04 -0.0375824 0.999189 -0.0144203 92 91 96
0.78 -0.547394 -1.04 0.00552829 0.999582 -0.0283596 87 86 91
0.8 -0.548354 -1.04 0.037937 0.998751 -0.0325029 83 82 87
0.68 -0.48 -1.04183 0.22185 -0.241837 0.944615 24 24 25
0.7 -0.5 -1.05165 0.272195 -0.221387 0.936428 24 24 25
0.7 -0.48 -1.04594 0.214115 -0.292787 0.931896 24 24 25
0.68 -0.5 -1.04635 0.249902 -0.213679 0.944399 24 24 25
0.72 -0.5 -1.058 0.191038 -0.266578 0.944691 23 23 25
0.72 -0.48 -1.04991 0.00760185 -0.374751 0.927094 23 23 25
0.74 -0.495949 -1.06 0.18612 -0.4686 0.863582 21 21 24
0.74 -0.48 -1.04629 0.025818 -0.511975 0.858612 21 21 24
0.729801 -0.5 -1.06 0.196599 -0.356509 0.913373 21 21 24
0.72 -0.515924 -1.06 0.227977 -0.113186 0.967065 23 23 25
0.718096 -0.52 -1.06 0.238462 -0.111375 0.964744 23 23 25
0.7 -0.52 -1.05508 0.279308 -0.140733 0.949832 23 23 25
0.74 -0.54569 -1.06 0.0765707 0.879678 0.469366 46 46 48
0.72 -0.543693 -1.06 0.093637 0.937894 0.334048 46 46 48
0.76 -0.547775 -1.06 0.0826849 0.924067 0.37318 61 61 63
0.78 -0.549624 -1.06 0.0840209 0.974757 0.206857 73 72 76
0.8 -0.550745 -1.06 0.0535612 0.992972 0.105533 80 80 84
0.74 -0.5 -1.06197 0.177153 -0.388004 0.904472 23 23 26
0.72 -0.52 -1.06047 0.23476 -0.111389 0.96565 24 24 27
0.74 -0.52 -1.06548 0.231995 -0.129048 0.964119 25 25 26
0.76 -0.54 -1.07196 0.194667 0.534927 0.822167 22 22 24
0.76 -0.52 -1.06959 0.216037 -0.12739 0.968039 22 22 24
0.74 -0.54 -1.06685 0.153317 0.587486 0.794578 22 22 24
0.78 -0.54 -1.07733 0.225793 0.623279 0.748693 22 22 24
0.78 -0.52 -1.07386 0.205761 -0.167336 0.964189 22 22 24
0.8 -0.543735 -1.08 0.178734 0.542858 0.820584 22 22 24
0.789725 -0.54 -1.08 0.197535 0.54347 0.815856 22 22 24
0.8 -0.54 -1.08214 0.178107 0.490018 0.853323 21 21 23
-0.62 -0.512412 -0.66 0.0377207 0.999081 0.0203417 118 119 121
-0.64 -0.511507 -0.64 0.0492055 0.998781 0.00397901 118 119 121
-0.62 -0.512584 -0.64 0.0459544 0.998798 0.0170233 118 119 121
-0.64 -0.511519 -0.66 0.0454055 0.998741 0.0213359 118 119 121
-0.6 -0.512838 -0.66 0.0290803 0.9993 0.023528 115 116 118
-0.6 -0.513686 -0.64 0.0407979 0.998319 0.0411572 115 116 118
-0.58 -0.513419 -0.66 0.02533 0.999381 0.0244117 110 111 113
-0.58 -0.514172 -0.64 0.0216267 0.999038 0.0381629 110 111 113
-0.56 -0.513777 -0.66 0.0357653 0.999126 0.021646 127 128 128
-0.56 -0.514573 -0.64 0.0301464 0.999128 0.0289027 127 128 128
-0.54 -0.515018 -0.66 0.047074 0.998694 0.0198826 118 120 120
-0.54 -0.514945 -0.64 0.0318657 0.999485 -0.00368311 118 120 120
-0.52 -0.515923 -0.66 0.0328415 0.999347 0.0150568 116 118 118
-0.52 -0.515848 -0.64 0.0370378 0.999309 0.00301925 116 118 118
-0.5 -0.516231 -0.66 0.0103916 0.999746 0.0199828 118 119 121
-0.5 -0.516699 -0.64 0.0303375 0.999066 0.0307675 118 119 121
-0.48 -0.516299 -0.66 0.0107706 0.999222 0.0379462 126 127 129
-0.48 -0.517358 -0.64 0.0328855 0.998061 0.0528501 126 127 129
-0.62 -0.511577 -0.68 0.0456576 0.99764 0.0512738 117 119 121
-0.64 -0.51062 -0.68 0.0602755 0.996253 0.0620202 117 119 121
-0.6 -0.512586 -0.68 0.0395155 0.998243 0.0441545 104 105 107
-0.58 -0.513121 -0.68 0.0334435 0.999092 0.0264033 117 118 119
-0.56 -0.513871 -0.68 0.0342676 0.999217 0.0197554 119 121 121
-0.54 -0.514408 -0.68 0.0342868 0.999279 0.0163316 114 116 117
-0.52 -0.515143 -0.68 0.0341094 0.99879 0.0354153 119 121 121
-0.5 -0.51586 -0.68 0.0105906 0.999566 0.0274956 116 117 120
-0.48 -0.515543 -0.68 -0.00621836 0.999584 0.0281562 92 93 95
-0.62 -0.510492 -0.7 0.0315446 0.99876 0.0385126 110 111 114
-0.64 -0.508517 -0.7 0.0977352 0.989753 0.104101 110 111 114
-0.6 -0.511023 -0.7 0.0198233 0.997212 0.0719441 97 98 100
-0.58 -0.512307 -0.7 0.0658855 0.987069 0.14613 97 99 100
-0.56 -0.513228 -0.7 0.049147 0.995085 0.0859642 104 106 105
-0.54 -0.514263 -0.7 0.0352007 0.996988 0.0691119 113 114 115
-0.52 -0.514697 -0.7 0.0292197 0.998484 0.0466533 114 115 116
-0.5 -0.515002 -0.7 0.0283585 0.999201 0.0281647 110 111 113
-0.48 -0.515671 -0.7 0.0210941 0.999678 0.0140784 113 114 117
-0.62 -0.511267 -0.72 -0.00146881 0.997813 -0.0660757 102 102 104
-0.64 -0.511495 -0.72 -0.0113126 0.989028 -0.147297 102 102 104
-0.6 -0.510341 -0.72 -0.0356967 0.999237 0.0158553 93 93 95
-0.58 -0.509107 -0.72 0.0460307 0.990862 0.126786 103 104 106
-0.56 -0.510968 -0.72 0.0790781 0.983132 0.164921 105 105 106
-0.54 -0.511945 -0.72 0.0619789 0.989462 0.130855 107 108 109
-0.52 -0.512835 -0.72 0.051072 0.994812 0.0879846 105 107 108
-0.5 -0.514571 -0.72 0.058044 0.994227 0.0902472 103 103 105
-0.48 -0.515473 -0.72 0.0419726 0.996382 0.0738997 109 110 113
-0.54 -0.508307 -0.74 0.153907 0.850548 0.502872 102 102 104
-0.56 -0.504109 -0.74 0.155355 0.740234 0.654155 102 102 104
-0.52 -0.511726 -0.74 0.0644463 0.918586 0.389931 102 103 106
-0.5 -0.511644 -0.74 0.0282864 0.947505 0.318486 102 103 105
-0.48 -0.512799 -0.74 0.050894 0.989048 0.138543 101 102 104
-0.56 -0.5 -0.743794 0.146948 0.681304 0.717099 18 19 21
-0.54 -0.5 -0.749416 0.159306 0.74491 0.647866 18 19 21
-0.52 -0.5 -0.754371 0.0709054 0.770352 0.633664 21 22 24
-0.5 -0.5 -0.753783 -0.018969 0.763775 0.645203 38 38 41
0.481969 -0.54 -0.66 0.0328068 0.99896 -0.0316513 120 120 121
0.48 -0.539936 -0.66 0.0325047 0.999018 -0.0301086 120 120 121
0.5 -0.54 -0.650889 0.0136054 0.997784 -0.0651329 120 120 121
0.5 -0.539284 -0.64 0.00920283 0.998322 -0.0571656 120 120 121
0.48 -0.539318 -0.64 -0.001686 0.999522 -0.0308664 120 120 121
0.52 -0.539484 -0.64 -0.0177293 0.998908 -0.0432196 119 119 121
0.52 -0.54 -0.651859 -0.0316941 0.998518 -0.0442385 119 119 121
0.526255 -0.54 -0.66 -0.0534966 0.997445 -0.0473411 113 112 114
0.54 -0.539289 -0.66 -0.0100032 0.998623 -0.0514999 113 112 114
0.54 -0.538431 -0.64 -0.00317793 0.999076 -0.0428549 113 112 114
0.557637 -0.54 -0.66 0.0406323 0.998464 -0.0376755 110 109 112
0.56 -0.54 -0.657235 0.0491747 0.99818 -0.0349097 110 109 112
0.56 -0.539356 -0.64 0.0822281 0.995895 -0.0378355 110 109 112
0.566776 -0.54 -0.64 0.099233 0.994299 -0.0390118 119 119 120
0.58 -0.539447 -0.66 0.0934504 0.995036 0.0342092 119 119 120
0.562829 -0.54 -0.66 -0.0342148 0.999084 0.0257148 119 119 120
0.58 -0.54 -0.653342 0.0662773 0.993732 0.0900192 119 119 120
0.584374 -0.54 -0.66 0.131026 0.991264 -0.015074 113 113 115
0.5 -0.540591 -0.66 0.013634 0.998598 -0.051149 123 123 124
0.52 -0.540338 -0.66 -0.0421279 0.998212 -0.0424057 118 118 120
0.56 -0.540096 -0.66 0.0364842 0.998861 -0.0307517 124 124 124
0.58 -0.541442 -0.64 0.0822015 0.994542 0.0642614 122 122 123
0.6 -0.542218 -0.66 0.072576 0.996187 0.0484101 125 125 125
0.6 -0.544233 -0.64 0.0810904 0.990601 0.110152 125 125 125
0.62 -0.542309 -0.66 0.0178815 0.997932 0.0617347 107 106 107
0.62 -0.545149 -0.64 0.051248 0.986248 0.157126 107 106 107
0.64 -0.54278 -0.66 0.0399405 0.995462 0.086376 87 86 88
0.64 -0.546995 -0.64 0.0899417 0.974535 0.205407 87 86 88
0.48 -0.54 -0.662255 0.0329024 0.999045 -0.028733 114 114 115
0.54 -0.54 -0.672383 -0.00677232 0.998181 -0.0599078 113 113 115
0.58 -0.54 -0.671386 0.0372784 0.998001 -0.0510415 110 110 113
0.48 -0.540537 -0.68 0.0266218 0.998821 -0.040594 113 112 114
0.5 -0.540944 -0.68 0.00655564 0.999303 -0.0367493 113 112 114
0.52 -0.540957 -0.68 -0.00731148 0.99932 -0.0361417 121 121 122
0.54 -0.54047 -0.68 -0.00466206 0.99812 -0.0611167 115 115 117
0.56 -0.541082 -0.68 0.00563665 0.998724 -0.0501852 113 111 115
0.58 -0.540458 -0.68 0.0189237 0.998417 -0.0529675 110 109 112
0.6 -0.541624 -0.68 0.0538307 0.998527 -0.00686019 122 122 123
0.62 -0.542489 -0.68 0.0242702 0.999218 -0.0312114 107 107 108
0.64 -0.542773 -0.68 0.0165285 0.99925 -0.0350166 115 115 116
0.5 -0.542222 -0.7 0.000673037 0.999584 -0.0288447 118 117 119
0.48 -0.541582 -0.7 0.025178 0.999242 -0.0296993 118 117 119
0.52 -0.541603 -0.7 0.00226054 0.999698 -0.0244849 118 118 119
0.54 -0.542109 -0.7 0.00810298 0.998712 -0.0500898 118 118 119
0.56 -0.541868 -0.7 0.00279806 0.998284 -0.0584923 115 115 117
0.58 -0.542196 -0.7 0.00350859 0.998552 -0.053678 106 106 107
0.6 -0.542369 -0.7 0.0450969 0.998459 -0.0323268 110 109 112
0.62 -0.543737 -0.7 0.0433983 0.998231 -0.0406481 114 113 113
0.64 -0.54409 -0.7 0.0167706 0.998318 -0.0554964 114 114 115
0.5 -0.542095 -0.72 0.00339186 0.999904 0.0134005 119 119 120
0.48 -0.541997 -0.72 -0.0065797 0.999977 -0.00159712 119 119 120
0.52 -0.541733 -0.72 0.00286984 0.999987 -0.00420467 114 114 114
0.54 -0.542422 -0.72 0.0407998 0.999166 0.00155997 105 105 107
0.56 -0.543403 -0.72 0.0105904 0.999565 -0.027518 114 114 115
0.58 -0.542973 -0.72 -0.00799229 0.999155 -0.0403247 111 111 113
0.6 -0.542652 -0.72 0.0271873 0.998809 -0.0405085 117 117 119
0.62 -0.544099 -0.72 0.0464667 0.998811 -0.0147422 106 106 108
0.64 -0.545031 -0.72 0.0393459 0.999118 0.0146656 114 113 114
0.5 -0.541285 -0.74 0.00402104 0.999986 0.00352466 107 107 108
0.48 -0.542105 -0.74 -0.0417984 0.99904 -0.0131322 107 107 108
0.52 -0.541982 -0.74 0.0141032 0.999781 -0.0154911 112 112 112
0.54 -0.542083 -0.74 0.0274642 0.999579 -0.00930725 100 100 101
0.56 -0.543101 -0.74 0.0363207 0.999338 0.00197352 112 112 114
0.58 -0.543379 -0.74 0.0201451 0.999471 -0.0255203 112 112 114
0.6 -0.544026 -0.74 0.025666 0.998538 -0.0475796 110 110 112
0.62 -0.544845 -0.74 0.00335363 0.999464 -0.0325573 112 112 113
0.64 -0.543791 -0.74 -0.0278211 0.999416 -0.0198475 118 118 120
0.5 -0.54167 -0.76 0.00169884 0.999711 -0.0239754 116 115 117
0.48 -0.542556 -0.76 -0.0339697 0.99932 -0.0143506 116 115 117
0.52 -0.542586 -0.76 0.0262092 0.999254 -0.0283691 104 104 106
0.54 -0.542813 -0.76 0.0121395 0.999544 -0.0276481 113 113 114
0.56 -0.543166 -0.76 0.0350953 0.999336 -0.00976695 111 111 112
0.58 -0.544113 -0.76 0.037097 0.99927 -0.00912806 113 113 115
0.6 -0.544996 -0.76 0.0273517 0.999573 -0.0102796 113 113 114
0.62 -0.545033 -0.76 -0.00167717 0.999924 -0.0122205 114 114 114
0.64 -0.544833 -0.76 -0.0206107 0.999732 -0.010527 117 117 119
0.5 -0.542206 -0.78 0.0179939 0.999838 -0.000664137 114 114 115
0.48 -0.542269 -0.78 -0.00342762 0.999895 0.0141032 114 114 115
0.52 -0.543211 -0.78 0.0343006 0.999309 -0.0142951 111 111 112
0.54 -0.543283 -0.78 0.00424674 0.999389 -0.034699 104 104 106
0.56 -0.543387 -0.78 0.0186756 0.999568 -0.0227136 110 110 113
0.58 -0.54409 -0.78 0.0281103 0.999531 -0.0121805 110 110 112
0.6 -0.544263 -0.78 0.0295013 0.999534 -0.00783042 107 107 109
0.62 -0.545238 -0.78 0.00271205 0.999953 -0.00934963 117 117 120
0.64 -0.544641 -0.78 -0.0248653 0.999661 -0.00772525 120 120 123
0.5 -0.541918 -0.8 0.021735 0.999664 0.0141205 114 113 114
0.48 -0.542001 -0.8 -0.00416297 0.999902 0.0133889 114 113 114
0.52 -0.542862 -0.8 0.0578984 0.998184 0.0166445 104 104 105
0.54 -0.544208 -0.8 0.0158246 0.999415 -0.0303361 103 103 104
0.56 -0.544134 -0.8 0.00579809 0.9992 -0.0395622 102 102 103
0.58 -0.544352 -0.8 0.0346099 0.999217 -0.0191474 107 107 110
0.6 -0.545277 -0.8 0.0236391 0.998869 -0.0412597 103 103 105
0.62 -0.545675 -0.8 -0.00113496 0.999578 -0.0290405 117 117 119
0.64 -0.544944 -0.8 -0.0331696 0.999279 -0.0184787 117 117 119
0.82 -0.548028 -0.82 -0.00392185 0.999738 -0.0225552 105 104 106
0.8 -0.548066 -0.8 -0.0127885 0.999859 -0.0108814 105 104 106
0.82 -0.548484 -0.8 0.0156195 0.999848 0.0077527 105 104 106
0.8 -0.548959 -0.82 -0.0232407 0.999151 -0.0340287 105 104 106
0.84 -0.548837 -0.82 0.0181366 0.999796 -0.00894208 111 111 113
0.84 -0.548088 -0.8 -0.00407852 0.999316 -0.0367512 111 111 113
0.86 -0.549043 -0.82 -0.00207449 0.999825 -0.0186049 117 117 119
0.86 -0.548347 -0.8 0.0147684 0.999752 -0.0166817 117 117 119
0.88 -0.54865 -0.82 0.0247127 0.999684 0.00452127 103 103 105
0.88 -0.549406 -0.8 0.0449871 0.998585 0.0283756 103 103 105
0.9 -0.549768 -0.82 0.0480156 0.998794 0.0102165 105 105 107
0.9 -0.549775 -0.8 0.0356547 0.999363 -0.00136661 105 105 107
0.92 -0.550895 -0.82 0.0345084 0.999389 0.00552353 107 107 109
0.92 -0.550766 -0.8 0.0337824 0.999425 0.00285485 107 107 109
0.94 -0.550884 -0.82 0.0333878 0.999442 0.000784832 108 108 110
0.94 -0.551501 -0.8 0.035896 0.999249 0.014581 108 108 110
0.96 -0.552236 -0.82 0.0512365 0.998681 0.00331962 106 106 107
0.96 -0.551553 -0.8 0.0026032 0.999415 -0.0341066 106 106 107
0.82 -0.549428 -0.84 -0.00117679 0.999419 -0.0340495 115 115 116
0.8 -0.5485 -0.84 0.0410826 0.999156 -4.53647e-05 115 115 116
0.84 -0.548736 -0.84 -0.008512 0.999673 -0.0241052 112 112 113
0.86 -0.548988 -0.84 0.00632118 0.999972 0.00410871 112 112 113
0.88 -0.548958 -0.84 0.0161622 0.999844 -0.00713321 109 109 111
0.9 -0.549687 -0.84 0.0301241 0.999546 0.000239697 105 105 107
0.92 -0.550277 -0.84 0.0508807 0.998381 0.0254271 108 108 110
0.94 -0.55147 -0.84 0.0395723 0.999203 -0.0052645 100 100 102
0.96 -0.552069 -0.84 0.0393255 0.999172 -0.010393 104 104 106
0.82 -0.549677 -0.86 0.0194544 0.999649 -0.0180008 107 107 109
0.8 -0.549172 -0.86 0.017024 0.999385 -0.0306463 107 107 109
0.84 -0.549705 -0.86 -0.0255936 0.998915 -0.0389179 116 115 118
0.86 -0.548848 -0.86 -0.0150341 0.999736 -0.0173607 113 113 114
0.88 -0.548988 -0.86 0.0206396 0.999784 0.00243508 112 111 113
0.9 -0.549872 -0.86 0.020918 0.999773 0.00399604 105 105 107
0.92 -0.54962 -0.86 0.0319768 0.999445 0.00928769 109 109 111
0.94 -0.551301 -0.86 0.0631958 0.997492 0.0318619 105 105 107
0.96 -0.552276 -0.86 0.0439527 0.998747 0.0239483 104 104 106
0.82 -0.549902 -0.88 0.0135181 0.999638 -0.0232767 109 109 110
0.8 -0.550057 -0.88 -0.00631106 0.999343 -0.0356866 109 109 110
0.84 -0.550491 -0.88 -0.0121324 0.999614 -0.0249815 116 116 118
0.86 -0.549569 -0.88 -0.0318522 0.999047 -0.0298453 106 106 107
0.88 -0.549058 -0.88 -0.00164941 0.999598 -0.0282875 112 112 113
0.9 -0.549322 -0.88 0.0242178 0.99966 -0.00962867 113 113 115
0.92 -0.550046 -0.88 0.0203353 0.999712 -0.0127343 106 106 108
0.94 -0.55031 -0.88 0.0412588 0.999148 0.00127223 106 106 107
0.96 -0.551296 -0.88 0.0490867 0.998774 0.00636454 107 107 109
0.82 -0.550502 -0.9 0.00696072 0.999808 -0.0183382 103 103 106
0.8 -0.550545 -0.9 0.0029847 0.999932 -0.0112995 103 103 106
0.84 -0.550858 -0.9 -0.0101135 0.999787 -0.0180018 114 114 115
0.86 -0.549885 -0.9 -0.0270329 0.999378 -0.0226318 109 109 111
0.88 -0.549939 -0.9 0.00946524 0.999695 -0.0228286 97 96 98
0.9 -0.550277 -0.9 0.007373 0.999322 -0.0360713 106 106 107
0.92 -0.550304 -0.9 0.0205796 0.999554 -0.021654 106 106 108
0.94 -0.550846 -0.9 0.0386426 0.998918 -0.0258754 105 105 106
0.96 -0.552028 -0.9 0.0565205 0.998157 -0.0220977 108 108 110
0.82 -0.550671 -0.92 0.0188931 0.999784 0.00864983 113 113 114
0.8 -0.550304 -0.92 0.0198461 0.999563 0.021915 113 113 114
0.84 -0.551 -0.92 -0.000705637 0.999985 -0.0054875 109 108 110
0.86 -0.55064 -0.92 -0.0246895 0.999475 -0.020965 111 110 111
0.88 -0.549985 -0.92 0.00545893 0.999762 -0.0211431 106 105 107
0.9 -0.550836 -0.92 0.0234261 0.999423 -0.0245864 102 102 104
0.92 -0.550658 -0.92 0.0122872 0.998812 -0.0471616 100 99 101
0.94 -0.551521 -0.92 0.0365665 0.99883 -0.0316611 102 102 103
0.96 -0.552279 -0.92 0.0431468 0.998813 -0.0226221 100 100 102
0.82 -0.550095 -0.94 0.0319354 0.999364 0.0158528 103 103 105
0.8 -0.549606 -0.94 0.0279062 0.999455 0.0176195 103 103 105
0.84 -0.551075 -0.94 0.0158602 0.999825 0.00995906 108 108 110
0.86 -0.550698 -0.94 -0.00835685 0.999935 -0.00779846 102 102 104
0.88 -0.550762 -0.94 0.00278818 0.999815 -0.0190513 100 100 101
0.9 -0.550996 -0.94 0.0440435 0.998969 -0.011041 96 95 97
0.92 -0.552392 -0.94 0.0301664 0.998604 -0.0433694 97 97 99
0.94 -0.552271 -0.94 0.00976319 0.998466 -0.0544997 98 98 100
0.96 -0.552722 -0.94 0.0263654 0.999183 -0.0306344 101 101 103
0.82 -0.550226 -0.96 0.024209 0.999702 -0.00309356 105 105 107
0.8 -0.549462 -0.96 0.0381717 0.999245 0.00718588 105 105 107
0.84 -0.550568 -0.96 0.0266532 0.999494 0.0173693 97 97 99
0.86 -0.550974 -0.96 -0.000627006 0.999992 -0.00401153 97 97 99
0.88 -0.550934 -0.96 0.00547339 0.999936 -0.00989905 90 90 90
0.9 -0.551141 -0.96 0.0385321 0.999229 -0.00757657 94 94 95
0.92 -0.552465 -0.96 0.0633695 0.99798 -0.00456807 92 92 94
0.94 -0.553645 -0.96 0.00590508 0.99861 -0.0523792 89 89 91
0.96 -0.553352 -0.96 0.00393067 0.998739 -0.0500448 95 94 97
0.7 -0.240288 -1.04 -0.0518152 0.0803422 0.99542 144 144 142
0.692378 -0.26 -1.04 -0.187602 0.0624977 0.980255 144 144 142
0.7 -0.26 -1.03852 -0.130313 0.0728027 0.988796 144 144 142
0.72 -0.26 -1.03847 -0.00245715 0.233869 0.972265 141 143 141
0.72 -0.254628 -1.04 -0.0189868 0.233435 0.972187 141 143 141
0.66 -0.28 -1.03737 0.176259 0.170061 0.969542 131 131 128
0.674667 -0.28 -1.04 0.175051 0.122535 0.976904 131 131 128
0.66 -0.268904 -1.04 0.171773 0.227067 0.958611 131 131 128
0.7 -0.28 -1.03747 -0.125366 0.0532027 0.990683 143 143 142
0.686598 -0.28 -1.04 -0.175423 0.053401 0.983044 143 143 142
0.72 -0.28 -1.03678 -0.0263678 0.0562448 0.998069 142 143 142
0.67994 -0.3 -1.04 0.193232 0.0332675 0.980589 129 130 127
0.66 -0.3 -1.03607 0.206737 0.070912 0.975823 129 130 127
0.7 -0.3 -1.03634 -0.0894852 0.0388093 0.995232 143 144 142
0.680076 -0.3 -1.04 -0.181908 0.0393046 0.98253 143 144 142
0.72 -0.3 -1.03589 -0.0253939 -0.0124017 0.999601 143 143 142
0.68 -0.300355 -1.04 -0.15535 0.0389043 0.987093 129 129 127
0.68 -0.32 -1.03899 0.0195718 0.0650259 0.997692 129 129 127
0.66 -0.32 -1.03389 0.24571 0.10503 0.963637 129 129 127
0.7 -0.32 -1.03531 -0.0380637 0.0513277 0.997956 143 145 142
0.72 -0.32 -1.0374 0.0407509 -0.0121005 0.999096 143 143 141
0.68 -0.16 -1.04593 -0.101883 0.0226038 0.99454 70 70 70
0.7 -0.18 -1.04342 0.0193417 0.0507442 0.998524 70 70 70
0.7 -0.16 -1.04379 0.00319836 0.00372931 0.999988 70 70 70
0.68 -0.18 -1.04539 -0.112643 0.0368718 0.992951 70 70 70
0.72 -0.18 -1.04628 0.0814748 0.0655008 0.994521 143 143 142
0.72 -0.16 -1.04545 0.0825277 -0.0410056 0.995745 143 143 142
0.7 -0.2 -1.04186 -0.0235295 0.0309664 0.999243 65 64 63
0.68 -0.2 -1.04504 -0.140205 0.0078424 0.990091 65 64 63
0.72 -0.2 -1.04447 0.0475972 0.095015 0.994337 144 144 143
0.74 -0.2 -1.04373 -0.116283 0.199041 0.973068 143 144 143
0.74 -0.18 -1.04668 0.0198511 0.145567 0.989149 143 144 143
0.7 -0.22 -1.04258 -0.0381136 0.033181 0.998722 56 56 56
0.68 -0.22 -1.04441 -0.108605 0.0607141 0.992229 56 56 56
0.72 -0.22 -1.04239 -0.164262 0.0618645 0.984475 144 144 143
0.727995 -0.22 -1.04 -0.285505 0.137299 0.948491 143 144 143
0.74 -0.210317 -1.04 -0.267551 0.32903 0.905624 143 144 143
0.7 -0.24 -1.04002 -0.0510667 0.0810091 0.995404 80 80 78
0.68 -0.24 -1.0433 -0.161316 0.0479672 0.985736 80 80 78
0.72 -0.24 -1.04312 -0.204291 0.126988 0.970639 144 144 143
0.729765 -0.24 -1.04 -0.303401 0.0850957 0.949056 143 144 144
0.68 -0.26 -1.04232 -0.180143 0.0598108 0.98182 89 90 88
0.68 -0.28 -1.04114 -0.171645 0.0533313 0.983714 98 98 95
0.68 -0.3 -1.04001 -0.181866 0.0392794 0.982539 99 99 97
0.733568 -0.32 -1.04 0.165397 -0.342341 0.924904 143 144 142
0.74 -0.32 -1.04115 0.165397 -0.342341 0.924904 143 144 142
0.74 -0.316892 -1.04 0.165397 -0.342341 0.924904 143 144 142
0.98 -0.554403 -0.98 0.0119258 0.999417 -0.031978 93 93 95
0.96 -0.553352 -0.96 0.00335812 0.998787 -0.0491256 93 93 95
0.98 -0.553546 -0.96 0.020831 0.998991 -0.0397888 93 93 95
0.96 -0.554462 -0.98 0.0014697 0.999441 -0.0333984 93 93 95
1 -0.554922 -0.98 0.0270127 0.999476 -0.0178302 99 99 101
1 -0.554308 -0.96 0.0380537 0.998862 -0.0287625 99 99 101
1.02 -0.555607 -0.98 0.0073858 0.999901 -0.0120119 101 101 103
1.02 -0.555146 -0.96 0.0113423 0.99989 -0.00959988 101 101 103
1.04 -0.554686 -0.98 -0.0310433 0.999275 -0.0220236 103 103 105
1.04 -0.555302 -0.96 -0.0043871 0.999492 0.0315744 103 103 105
1.06 -0.554323 -0.98 -0.0139752 0.999792 0.0148237 98 98 100
1.06 -0.555001 -0.96 -0.0118844 0.999666 0.0229376 98 98 100
1.08 -0.554587 -0.98 -0.0107071 0.999432 0.0319674 96 96 98
1.08 -0.554388 -0.96 -0.0138558 0.999887 0.00575928 96 96 98
1.1 -0.554017 -0.98 0.00776781 0.998872 0.046835 99 99 100
1.1 -0.555075 -0.96 0.0462596 0.996896 0.0637116 99 99 100
1.12 -0.554745 -0.98 0.0472445 0.995872 0.0775085 97 97 99
1.12 -0.556689 -0.96 0.0800686 0.992117 0.0964016 97 97 99
0.98 -0.554808 -1 0.0115713 0.999885 -0.00982112 90 90 92
0.96 -0.554513 -1 0.015639 0.999868 -0.00432874 90 90 92
1 -0.555146 -1 0.0117654 0.999913 -0.00599429 92 92 94
1.02 -0.555095 -1 0.0338955 0.999409 -0.00573632 98 98 100
1.04 -0.556147 -1 -0.0173521 0.998512 -0.0516911 100 100 102
1.06 -0.554868 -1 -0.0687023 0.996536 -0.0468689 96 96 98
1.08 -0.553229 -1 -0.0396413 0.999198 0.00567431 96 96 98
1.1 -0.553045 -1 -0.0111545 0.999334 0.0347432 93 93 95
1.12 -0.55313 -1 0.012239 0.998173 0.059168 94 94 96
0.98 -0.554966 -1.02 0.00835366 0.999895 0.011843 88 87 90
0.96 -0.554601 -1.02 0.0284079 0.99934 0.0226446 88 87 90
1 -0.554979 -1.02 0.0146898 0.999699 0.0196576 89 89 91
1.02 -0.555481 -1.02 0.0448147 0.9988 0.0197368 90 89 93
1.04 -0.557228 -1.02 0.0256124 0.999619 0.0102798 95 95 97
1.06 -0.556044 -1.02 -0.0724865 0.99616 -0.049107 99 99 101
1.08 -0.554128 -1.02 -0.0828631 0.995207 -0.0519209 93 93 95
1.1 -0.552974 -1.02 -0.048418 0.998816 -0.00478471 91 91 93
1.12 -0.552052 -1.02 -0.0335116 0.999201 0.0217807 94 94 96
0.98 -0.554377 -1.04 0.0313006 0.99827 0.0497749 84 83 85
0.96 -0.553196 -1.04 0.0627938 0.994958 0.0782082 84 83 85
1 -0.554286 -1.04 0.0109619 0.999778 0.0179912 85 85 87
1.02 -0.554755 -1.04 0.0237553 0.999569 0.0172464 89 88 92
1.04 -0.555253 -1.04 0.046906 0.997619 0.0505673 90 90 93
1.06 -0.556655 -1.04 -0.00129987 0.999614 0.0277674 93 93 95
1.08 -0.55558 -1.04 -0.0744854 0.996292 -0.0430676 90 90 92
1.1 -0.5531 -1.04 -0.0889422 0.993028 -0.0773637 89 89 91
1.12 -0.551754 -1.04 -0.061737 0.99648 -0.0567158 90 90 92
0.98 -0.5528 -1.06 0.067208 0.996896 0.0410081 80 79 82
0.96 -0.551295 -1.06 0.0625149 0.997551 0.0313673 80 79 82
1 -0.554197 -1.06 0.0409705 0.998953 0.0203373 82 81 86
1.02 -0.554807 -1.06 0.0257116 0.999648 0.00647975 84 84 86
1.04 -0.555205 -1.06 0.0168996 0.999857 -0.000622943 87 87 89
1.06 -0.555303 -1.06 0.00735192 0.99984 0.0163174 86 86 89
1.08 -0.555318 -1.06 0.00387952 0.999817 0.0187354 87 86 89
1.1 -0.555884 -1.06 -0.0368744 0.998355 -0.0439101 85 85 87
1.12 -0.554135 -1.06 -0.0818041 0.99244 -0.0914933 89 89 91
0.98 -0.552933 -1.08 0.0391079 0.999035 0.0200012 77 76 80
0.96 -0.552428 -1.08 0.0492653 0.998525 0.0228204 77 76 80
1 -0.553835 -1.08 0.0487878 0.998196 0.0349983 79 77 82
1.02 -0.554474 -1.08 0.0333671 0.999347 0.0138492 76 75 80
1.04 -0.555098 -1.08 0.0334617 0.999438 0.0020905 82 81 85
1.06 -0.555817 -1.08 0.00729419 0.999728 -0.0221466 83 82 86
1.08 -0.555256 -1.08 -0.0108784 0.999237 -0.0375097 81 81 85
1.1 -0.555208 -1.08 -0.000868099 0.999794 -0.0202838 83 83 85
1.12 -0.555241 -1.08 -0.0205643 0.999457 -0.0257434 87 87 89
0.98 -0.55184 -1.1 0.0677928 0.975351 0.209987 63 62 65
0.96 -0.549378 -1.1 0.120798 0.981332 0.149654 63 62 65
1 -0.552377 -1.1 0.0913443 0.974219 0.206285 72 72 74
1.02 -0.55418 -1.1 0.0563518 0.99322 0.10168 71 71 75
1.04 -0.555125 -1.1 0.0692033 0.994687 0.0762083 77 77 79
1.06 -0.556055 -1.1 0.0322692 0.999479 0.00102984 75 75 78
1.08 -0.556649 -1.1 0.0209267 0.999582 -0.0199472 77 76 79
1.1 -0.55672 -1.1 -0.0108126 0.997589 -0.0685472 79 79 82
1.12 -0.556057 -1.1 -0.0243179 0.996921 -0.0745524 82 82 85
1.02 -0.52 -1.11948 0.248684 -0.215639 0.944275 22 22 25
1.02 -0.522292 -1.12 0.248684 -0.215639 0.944275 22 22 25
1.02199 -0.52 -1.12 0.248684 -0.215639 0.944275 22 22 25
1 -0.543196 -1.12 0.203462 0.655306 0.727445 27 25 29
0.994774 -0.54 -1.12 0.140862 0.230348 0.962859 27 25 29
0.98 -0.54 -1.11784 0.187956 0.737826 0.648294 27 25 29
1.02 -0.550814 -1.12 0.112258 0.967294 0.227468 30 29 32
1.04 -0.551022 -1.12 0.131435 0.972925 0.19011 39 37 40
1.06 -0.556009 -1.12 0.0679113 0.996409 0.0505783 51 50 53
1.08 -0.555884 -1.12 0.0534202 0.998146 0.0291836 63 63 65
1.1 -0.557799 -1.12 0.0268693 0.999158 -0.0309963 72 72 74
1.12 -0.557887 -1.12 -0.0142389 0.997271 -0.0724356 78 78 80
-0.16 -0.02 -0.850053 -0.0108393 0.101131 0.994814 153 158 155
-0.14 -0.04 -0.847802 0.018448 -0.0133761 0.99974 153 158 155
-0.14 -0.02 -0.84869 -0.067892 0.044292 0.996709 153 158 155
-0.16 -0.04 -0.846851 0.0892369 0.0560885 0.99443 153 158 155
-0.14 -0.06 -0.850406 0.170288 -0.0324869 0.984859 151 157 154
-0.16 -0.06 -0.846097 0.230776 0.0306208 0.972525 151 157 154
-0.14 -0.08 -0.850777 0.268436 0.00246137 0.963295 150 156 154
-0.16 -0.08 -0.844752 0.286592 0.0217996 0.957805 150 156 154
-0.14 -0.1 -0.851132 0.574474 -0.0316385 0.817911 151 156 155
-0.16 -0.1 -0.845261 0.317417 0.00886702 0.948245 151 156 155
-0.14 -0.12 -0.8519 0.706729 0.0155774 0.707313 149 153 152
-0.16 -0.12 -0.84281 0.416593 0.0625814 0.906937 149 153 152
-0.133639 -0.1 -0.86 0.812133 -0.0336912 0.582499 117 121 119
-0.134469 -0.12 -0.86 0.824331 0.0178421 0.565828 117 121 119
-0.14 -0.14 -0.851765 0.608867 -0.000533613 0.793272 147 152 151
-0.16 -0.14 -0.842323 0.438524 0.0132046 0.898623 147 152 151
-0.133018 -0.14 -0.86 0.762257 0.0341505 0.646373 132 136 135
-0.14 -0.16 -0.852306 0.913121 -0.0186867 0.407259 142 146 145
-0.16 -0.16 -0.841702 0.468273 0.0274309 0.883158 142 146 145
-0.132776 -0.16 -0.86 0.735608 0.00176021 0.677406 142 147 144
-0.12 -0.14 -0.874583 0.73689 0.0972674 0.668979 114 118 115
-0.12 -0.12 -0.879805 0.770397 0.118834 0.626392 114 118 115
-0.12 -0.16 -0.873351 0.721845 0.0425652 0.690744 118 122 121
0.66 -0.544573 -0.66 0.0354043 0.994758 0.0959369 52 52 54
0.64 -0.546995 -0.64 -0.000404164 0.992797 0.119805 52 52 54
0.66 -0.545248 -0.64 -0.0711483 0.99735 -0.0152268 52 52 54
0.64 -0.54278 -0.66 0.0638779 0.989878 0.126733 52 52 54
0.68 -0.545432 -0.66 0.026895 0.999452 0.0192951 97 96 98
0.68 -0.542133 -0.64 -0.0673416 0.981923 -0.176897 97 96 98
0.7 -0.546381 -0.66 0.0590724 0.996882 -0.0523063 105 104 105
0.7 -0.541892 -0.64 0.00659535 0.971062 -0.238738 105 104 105
0.72 -0.547763 -0.66 0.0355765 0.992482 -0.117101 104 103 105
0.72 -0.541591 -0.64 9.01897e-05 0.956541 -0.291598 104 103 105
0.74 -0.547918 -0.66 -0.0453374 0.986522 -0.157222 104 104 105
0.74 -0.542033 -0.64 -0.0133991 0.969879 -0.24322 104 104 105
0.76 -0.545231 -0.66 -0.0730326 0.986299 -0.147919 101 101 103
0.76 -0.542636 -0.64 -0.00521667 0.993092 -0.117224 101 101 103
0.78 -0.543956 -0.66 -0.152207 0.974868 -0.16268 102 102 104
0.78 -0.542288 -0.64 -0.215835 0.972444 -0.0881332 102 102 104
0.787181 -0.54 -0.64 -0.302267 0.948806 -0.0916635 101 101 103
0.793246 -0.54 -0.66 -0.242916 0.92443 -0.293974 101 101 103
0.8 -0.54 -0.664713 -0.226683 0.916623 -0.329268 75 75 77
0.8 -0.538426 -0.66 -0.215827 0.926154 -0.309284 75 75 77
0.66 -0.542608 -0.68 -0.0071523 0.999806 0.0183725 120 120 122
0.64 -0.542773 -0.68 -0.0142033 0.999542 -0.0267114 120 120 122
0.68 -0.542107 -0.68 0.02837 0.99644 0.0793898 118 118 120
0.7 -0.544093 -0.68 0.102364 0.98705 0.12351 115 113 115
0.72 -0.546753 -0.68 0.0883228 0.989945 0.110493 103 102 105
0.74 -0.547997 -0.68 0.0260903 0.997086 0.0716862 49 48 51
0.76 -0.547645 -0.68 -0.0389608 0.999193 -0.00977411 66 66 68
0.78 -0.547053 -0.68 -0.00176603 0.999329 -0.0365806 94 94 96
0.8 -0.547638 -0.68 -0.058705 0.988795 -0.13725 102 103 104
0.66 -0.543446 -0.7 -0.0332131 0.998999 -0.0299679 113 113 114
0.64 -0.54409 -0.7 -0.0424492 0.998037 -0.0460464 113 113 114
0.68 -0.542515 -0.7 -0.0299671 0.998939 -0.0349604 114 113 114
0.7 -0.541872 -0.7 0.0383614 0.999263 0.00152669 116 115 116
0.72 -0.543596 -0.7 0.066792 0.995852 0.0617887 101 101 102
0.74 -0.544836 -0.7 0.0729025 0.992456 0.098573 116 114 116
0.76 -0.546255 -0.7 0.0128723 0.999157 0.0389778 104 103 105
0.78 -0.545522 -0.7 0.00466895 0.999903 0.0131194 103 103 105
0.8 -0.546527 -0.7 0.0449741 0.998829 0.0178282 97 96 98
0.66 -0.543563 -0.72 -0.0484878 0.998769 -0.0104195 110 110 111
0.64 -0.545031 -0.72 -0.0534592 0.998494 -0.0122957 110 110 111
0.68 -0.543133 -0.72 0.00242888 0.999996 -0.00161294 108 108 110
0.7 -0.543555 -0.72 0.0319194 0.998434 -0.0459342 116 115 117
0.72 -0.544515 -0.72 0.0169281 0.998141 -0.0585576 115 114 117
0.74 -0.543728 -0.72 0.0406259 0.998869 -0.0246942 107 107 109
0.76 -0.546249 -0.72 0.0678911 0.997651 0.00911655 105 104 107
0.78 -0.546607 -0.72 0.0150501 0.999503 -0.0276965 113 112 114
0.8 -0.547135 -0.72 0.0323005 0.999093 -0.0277475 111 111 113
0.66 -0.54391 -0.74 -0.0369638 0.999198 0.0154272 115 115 118
0.64 -0.543791 -0.74 -0.0170597 0.999464 0.0279324 115 115 118
0.68 -0.542474 -0.74 0.00548481 0.99997 0.00546012 100 100 102
0.7 -0.543819 -0.74 0.0644855 0.997898 -0.00645961 115 115 116
0.72 -0.545434 -0.74 0.0536953 0.998373 -0.0192063 114 113 114
0.74 -0.54592 -0.74 0.00927353 0.997819 -0.0653479 110 110 112
0.76 -0.546029 -0.74 0.0326552 0.999076 -0.0279597 100 100 102
0.78 -0.546915 -0.74 0.033705 0.999424 -0.00390318 108 108 110
0.8 -0.5474 -0.74 0.0247703 0.999582 -0.0149396 111 111 113
0.66 -0.543112 -0.76 -0.0383809 0.999261 -0.0022152 118 118 120
0.64 -0.544833 -0.76 -0.0808523 0.996387 -0.0259906 118 118 120
0.68 -0.542605 -0.76 0.0173914 0.999613 -0.0217007 110 110 111
0.7 -0.544187 -0.76 0.0621122 0.997879 -0.0194629 108 108 110
0.72 -0.545231 -0.76 0.0595856 0.998223 -0.000840474 115 115 117
0.74 -0.546582 -0.76 0.042769 0.999073 -0.00491416 109 109 110
0.76 -0.547056 -0.76 0.00764885 0.999526 -0.0298348 108 108 110
0.78 -0.546785 -0.76 0.0174591 0.99967 -0.0188427 108 108 110
0.8 -0.547711 -0.76 0.0407715 0.999168 0.00131329 112 112 114
0.66 -0.543312 -0.78 -0.0314918 0.999215 -0.0240476 117 117 118
0.64 -0.544641 -0.78 -0.0562948 0.998333 -0.0127548 117 117 118
0.68 -0.543717 -0.78 0.0327368 0.999062 -0.0283403 118 118 119
0.7 -0.544734 -0.78 0.048484 0.998266 -0.0333814 112 111 114
0.72 -0.545474 -0.78 0.0376795 0.99895 -0.0260517 110 110 112
0.74 -0.546227 -0.78 0.0399731 0.999194 -0.00355383 112 111 114
0.76 -0.547122 -0.78 0.033474 0.999422 0.00588882 110 110 111
0.78 -0.547626 -0.78 0.00978606 0.999786 -0.0182012 119 119 119
0.8 -0.547568 -0.78 0.00941074 0.999732 -0.0211605 111 111 113
0.66 -0.544416 -0.8 -0.0372574 0.998288 -0.0450951 114 114 116
0.64 -0.544944 -0.8 -0.0263629 0.999538 -0.0151415 114 114 116
0.68 -0.543851 -0.8 0.0350642 0.999207 -0.0188675 120 120 121
0.7 -0.545339 -0.8 0.0541813 0.998235 -0.0243329 105 105 106
0.72 -0.546258 -0.8 0.0335073 0.998756 -0.036937 114 114 116
0.74 -0.546771 -0.8 0.0184777 0.999373 -0.0302022 113 113 115
0.76 -0.546878 -0.8 0.0297548 0.999555 0.00231123 106 105 107
0.78 -0.547568 -0.8 0.0273478 0.999613 0.00518495 107 107 108
0.8 -0.548066 -0.8 0.0109913 0.999879 -0.0110181 116 116 116
0.5 -0.54 -0.964548 0.0546837 0.986434 0.154783 78 78 81
0.5 -0.538092 -0.98 0.0467953 0.998902 -0.00215992 78 78 81
0.486447 -0.54 -0.96 0.0526189 0.989262 0.136354 78 78 81
0.48 -0.539638 -0.96 0.057791 0.989259 0.134265 78 78 81
0.48 -0.536783 -0.98 0.0329432 0.996889 -0.0715986 78 78 81
0.52 -0.54 -0.973322 0.0618284 0.99134 0.115856 84 84 88
0.52 -0.539306 -0.98 0.0586084 0.99634 0.0622236 84 84 88
0.531228 -0.54 -0.98 0.0771764 0.996223 0.0398022 82 82 86
0.5 -0.54076 -0.96 0.0562665 0.984767 0.164526 96 95 98
0.52 -0.541934 -0.96 0.065635 0.988294 0.13772 94 93 98
0.54 -0.540791 -0.98 0.070424 0.996816 0.0373974 92 91 96
0.54 -0.542843 -0.96 0.0496935 0.993762 0.0998396 92 91 96
0.56 -0.541967 -0.98 0.0261496 0.993653 0.109407 92 92 96
0.56 -0.543849 -0.96 0.0464389 0.995386 0.0839701 92 92 96
0.58 -0.543216 -0.98 0.0559572 0.992738 0.106492 90 89 93
0.58 -0.544324 -0.96 0.0270249 0.998685 0.043565 90 89 93
0.6 -0.544294 -0.98 0.027056 0.99753 0.0648297 91 90 95
0.6 -0.544463 -0.96 0.00459943 0.999896 0.0136489 91 90 95
0.62 -0.544131 -0.98 0.0227349 0.998889 0.0412774 94 93 98
0.62 -0.544716 -0.96 0.0355472 0.998941 0.0291956 94 93 98
0.64 -0.545303 -0.98 0.0583952 0.996567 0.0586917 98 98 102
0.64 -0.545886 -0.96 0.0583538 0.997873 0.0290461 98 98 102
0.5 -0.54 -0.993804 -0.017294 0.987452 -0.156972 20 20 23
0.48 -0.54 -0.992693 -0.0124468 0.974485 -0.224107 20 20 23
0.52 -0.54 -0.997456 0.00462391 0.99846 -0.0552895 21 21 24
0.56 -0.538905 -1 -0.0666878 0.997389 0.0277062 41 41 45
0.551296 -0.54 -1 -0.122358 0.990309 0.0657047 41 41 45
0.56 -0.54 -0.992484 -0.051457 0.987609 0.148257 41 41 45
0.578734 -0.54 -1 0.0659929 0.997796 -0.00698389 69 69 72
0.48 -0.541583 -1 -0.0238316 0.947786 0.318015 84 83 87
0.5 -0.540974 -1 -0.0277242 0.957896 0.285775 84 83 87
0.52 -0.540132 -1 -0.00118882 0.998705 -0.0508623 88 87 91
0.54 -0.541362 -1 -0.0369555 0.999315 -0.00175491 90 89 93
0.58 -0.540084 -1 0.0704525 0.9975 -0.00557484 87 86 91
0.6 -0.541664 -1 0.0602338 0.997981 -0.0201332 92 91 96
0.62 -0.54316 -1 0.0368824 0.99919 -0.0160831 91 91 95
0.64 -0.543526 -1 0.0283715 0.999417 -0.0190047 89 88 93
0.48 -0.52 -1.00629 0.0589427 0.263734 0.962793 19 20 22
0.5 -0.54 -1.00204 -0.0219418 0.884181 0.466629 19 20 22
0.5 -0.52 -1.00934 0.141818 0.339596 0.929819 19 20 22
0.48 -0.54 -1.00265 -0.0276536 0.801632 0.597179 19 20 22
0.551491 -0.52 -1.02 0.277903 0.0141277 0.960505 20 20 22
0.54 -0.52 -1.01668 0.410574 0.106221 0.905619 20 20 22
0.552507 -0.54 -1.02 0.262725 0.820743 0.507303 20 20 22
0.54 -0.54 -1.00809 0.236245 0.926129 0.294064 20 20 22
0.56 -0.54 -1.00933 -0.0414014 0.992996 -0.110661 20 20 22
0.52 -0.54 -1.00039 0.015968 0.946236 0.323083 35 34 38
0.56 -0.541117 -1.02 0.117877 0.83991 0.52977 69 69 72
0.58 -0.544176 -1.02 0.112054 0.928786 0.35327 82 81 86
0.6 -0.545873 -1.02 0.0332204 0.973012 0.228349 87 86 90
0.62 -0.545172 -1.02 0.0479303 0.992431 0.113065 92 92 95
0.64 -0.545672 -1.02 0.02331 0.999261 0.0305511 92 91 96
0.56 -0.54 -1.02157 0.121649 0.809851 0.573884 20 21 23
0.58 -0.54 -1.02656 0.104455 0.843527 0.526831 20 20 23
0.6 -0.54 -1.0313 0.0530408 0.899547 0.433592 22 22 25
0.62 -0.54 -1.03608 0.133651 0.942149 0.307396 30 30 32
0.64 -0.542332 -1.04 0.133836 0.77284 0.620328 49 49 51
0.627282 -0.54 -1.04 0.16439 0.896581 0.411241 49 49 51
0.64 -0.54 -1.0426 0.135162 0.73717 0.662051 21 21 23
0.34 -0.531149 -0.34 0.0130772 0.999141 -0.0393201 133 133 136
0.32 -0.530039 -0.32 0.00172145 0.998555 -0.0537111 133 133 136
0.34 -0.53011 -0.32 0.0276397 0.998753 -0.0415674 133 133 136
0.32 -0.531152 -0.34 -0.000642586 0.999026 -0.0441114 133 133 136
0.36 -0.531773 -0.34 0.0403348 0.999092 -0.013728 122 121 126
0.36 -0.531563 -0.32 0.0501407 0.998596 -0.017074 122 121 126
0.38 -0.532594 -0.34 0.0208686 0.999628 -0.0175336 122 121 125
0.38 -0.531858 -0.32 0.00447963 0.999131 -0.0414506 122 121 125
0.4 -0.532666 -0.34 0.00887778 0.999124 -0.0409025 133 132 137
0.4 -0.531554 -0.32 0.000483136 0.998782 -0.0493344 133 132 137
0.42 -0.532742 -0.34 0.0330138 0.9978 -0.0574954 77 74 80
0.42 -0.532123 -0.32 0.0531282 0.998407 -0.0189817 77 74 80
0.44 -0.533827 -0.34 0.0490768 0.99743 -0.0522026 128 128 130
0.44 -0.534169 -0.32 0.101733 0.994666 0.0170005 128 128 130
0.34 -0.531782 -0.36 0.00303133 0.999697 -0.0244329 117 116 122
0.32 -0.531826 -0.36 0.00709309 0.999846 -0.0160697 117 116 122
0.36 -0.531942 -0.36 0.0195731 0.999749 -0.0109072 128 128 132
0.38 -0.532617 -0.36 0.0269246 0.999611 0.00730916 125 124 129
0.4 -0.532985 -0.36 0.0387115 0.999245 0.00343214 132 131 136
0.42 -0.534267 -0.36 0.0594696 0.997969 -0.0228374 50 48 54
0.44 -0.535517 -0.36 0.0311473 0.998377 -0.0476753 118 117 121
0.46 -0.535444 -0.36 0.0205208 0.998895 -0.0422805 123 121 125
0.46 -0.534497 -0.34 0.0553148 0.998087 -0.0276044 123 121 125
0.48 -0.536204 -0.36 0.0577666 0.998232 -0.013999 132 131 134
0.48 -0.536847 -0.34 0.116607 0.992666 0.0318765 132 131 134
0.34 -0.532122 -0.38 0.0159926 0.999872 0.000174226 109 107 113
0.32 -0.531424 -0.38 0.03166 0.999443 0.0105936 109 107 113
0.36 -0.53226 -0.38 0.00492386 0.999978 -0.00441895 116 115 121
0.38 -0.532267 -0.38 0.0160005 0.99987 0.00206607 121 120 125
0.4 -0.532627 -0.38 0.0378264 0.999284 -0.000829243 119 118 123
0.42 -0.53381 -0.38 0.072536 0.99734 0.0071446 100 99 105
0.44 -0.535669 -0.38 0.0559391 0.998425 0.00417856 108 107 113
0.46 -0.536056 -0.38 0.0174549 0.999713 -0.0163877 122 120 126
0.48 -0.536613 -0.38 0.0303875 0.999514 -0.00694279 119 117 121
0.34 -0.531971 -0.4 0.0139375 0.999798 -0.0145177 118 118 121
0.32 -0.531529 -0.4 0.0147491 0.999507 -0.0277105 118 118 121
0.36 -0.532067 -0.4 0.00724308 0.999937 -0.00858926 125 125 128
0.38 -0.532261 -0.4 0.0240042 0.999643 -0.011758 119 117 122
0.4 -0.533046 -0.4 0.0438847 0.998763 -0.0233963 85 84 89
0.42 -0.53411 -0.4 0.0531967 0.998384 -0.0199957 119 118 122
0.44 -0.535347 -0.4 0.0533748 0.998482 0.0135623 133 133 135
0.46 -0.536344 -0.4 0.0294815 0.999417 0.0172129 124 123 126
0.48 -0.536381 -0.4 0.00832916 0.999962 -0.0025746 131 129 132
0.34 -0.532683 -0.42 0.000787513 0.998994 -0.0448367 121 120 125
0.32 -0.53283 -0.42 -0.00554673 0.998669 -0.0512781 121 120 125
0.36 -0.532604 -0.42 -0.000313508 0.999079 -0.0429051 114 115 116
0.38 -0.532756 -0.42 0.0248677 0.99925 -0.029691 118 117 121
0.4 -0.533656 -0.42 0.0516339 0.998261 -0.0284264 51 50 55
0.42 -0.53478 -0.42 0.0354162 0.998843 -0.0325448 123 122 125
0.44 -0.535222 -0.42 0.0187713 0.999762 -0.0111121 122 121 127
0.46 -0.535216 -0.42 0.0321777 0.999444 0.00871673 122 121 124
0.48 -0.536456 -0.42 0.0468273 0.998797 0.0145338 121 119 123
0.34 -0.533509 -0.44 0.00871512 0.999502 -0.0303365 99 98 103
0.32 -0.533512 -0.44 0.00324239 0.999716 -0.023603 99 98 103
0.36 -0.533872 -0.44 0.00171567 0.998943 -0.0459303 123 123 124
0.38 -0.533505 -0.44 0.0132069 0.998348 -0.0559213 114 113 116
0.4 -0.53414 -0.44 0.0499813 0.997253 -0.0546648 71 69 73
0.42 -0.53556 -0.44 0.0282855 0.998499 -0.046902 126 126 128
0.44 -0.535477 -0.44 0.00830888 0.999647 -0.0252484 115 114 120
0.46 -0.535936 -0.44 0.0184173 0.999705 -0.015801 130 129 133
0.48 -0.5364 -0.44 0.0328467 0.999453 -0.00378468 119 118 121
0.34 -0.533908 -0.46 0.0171279 0.999691 -0.0179888 113 112 113
0.32 -0.533638 -0.46 0.0220643 0.999749 -0.00380497 113 112 113
0.36 -0.534372 -0.46 0.0186646 0.999591 -0.0216764 111 111 113
0.38 -0.534735 -0.46 0.0366331 0.998722 -0.034812 104 103 106
0.4 -0.535902 -0.46 0.0426508 0.997771 -0.051323 98 98 102
0.42 -0.536858 -0.46 0.0216943 0.999165 -0.0346281 125 124 126
0.44 -0.536276 -0.46 -0.0204623 0.998637 -0.0480138 124 124 125
0.46 -0.536035 -0.46 0.00209362 0.999759 -0.0218383 110 108 113
0.48 -0.53622 -0.46 0.0127187 0.999855 -0.0113674 123 122 124
0.34 -0.534278 -0.48 0.0288583 0.999534 -0.00993032 107 106 109
0.32 -0.533321 -0.48 0.0477454 0.998735 0.0157901 107 106 109
0.36 -0.53482 -0.48 0.0161248 0.999641 -0.0214111 112 111 113
0.38 -0.534962 -0.48 0.0474699 0.998773 -0.0140941 79 78 80
0.4 -0.536615 -0.48 0.0310458 0.99908 -0.0295743 116 115 119
0.42 -0.536454 -0.48 0.0334749 0.99942 0.0062094 129 129 131
0.44 -0.537397 -0.48 -0.0136335 0.999225 -0.0369353 123 121 124
0.46 -0.53667 -0.48 -0.0109645 0.999226 -0.0377864 128 126 130
0.48 -0.536715 -0.48 0.00574989 0.999584 -0.0282494 114 112 115
-0.62 -0.51071 -0.5 0.0326975 0.999432 0.00816646 130 132 131
-0.64 -0.510564 -0.48 0.0173744 0.999798 0.0100952 130 132 131
-0.62 -0.510734 -0.48 0.0243558 0.999693 -0.00459594 130 132 131
-0.64 -0.510185 -0.5 0.0212713 0.999757 0.00572759 130 132 131
-0.6 -0.511748 -0.5 0.0475022 0.998867 0.00276722 121 123 122
-0.6 -0.511306 -0.48 0.0380981 0.999147 -0.0159474 121 123 122
-0.58 -0.512457 -0.5 0.0600764 0.998134 -0.0109197 131 133 132
-0.58 -0.512505 -0.48 0.0636022 0.997969 -0.00366772 131 133 132
-0.56 -0.514051 -0.5 0.0583764 0.998171 -0.0157419 136 138 137
-0.56 -0.513611 -0.48 0.054843 0.998359 -0.0164551 136 138 137
-0.54 -0.514921 -0.5 0.0471991 0.998832 -0.0103313 133 135 134
-0.54 -0.514924 -0.48 0.0533509 0.998574 -0.00199374 133 135 134
-0.52 -0.515832 -0.5 0.0413171 0.99907 -0.0122935 139 141 140
-0.52 -0.515663 -0.48 0.0372782 0.999275 -0.00767741 139 141 140
-0.5 -0.516555 -0.5 0.055263 0.99842 -0.010142 137 137 139
-0.5 -0.516447 -0.48 0.06007 0.998157 -0.00859704 137 137 139
-0.48 -0.518309 -0.5 0.0841576 0.996423 0.00766231 138 141 140
-0.48 -0.517944 -0.48 0.0746126 0.997046 -0.0182149 138 141 140
-0.62 -0.510661 -0.52 0.0227714 0.999636 -0.0144668 128 130 129
-0.64 -0.510534 -0.52 0.0135382 0.999883 -0.00706771 128 130 129
-0.6 -0.511039 -0.52 0.052791 0.998459 -0.017102 121 123 122
-0.58 -0.512837 -0.52 0.0716559 0.997353 -0.0123606 116 118 117
-0.56 -0.514365 -0.52 0.0594246 0.998225 -0.003932 132 134 133
-0.54 -0.515229 -0.52 0.0492706 0.998764 -0.00653259 131 133 132
-0.52 -0.516135 -0.52 0.0402467 0.999081 -0.0147577 140 142 141
-0.5 -0.517112 -0.52 0.0445646 0.998996 -0.00451175 130 131 131
-0.48 -0.517764 -0.52 0.0463129 0.998889 -0.00871179 134 136 135
-0.62 -0.510882 -0.54 0.0482693 0.998521 -0.0250134 130 132 131
-0.64 -0.510179 -0.54 0.0391707 0.999105 -0.0159482 130 132 131
-0.6 -0.512492 -0.54 0.0565376 0.997766 -0.035587 130 132 131
-0.58 -0.513402 -0.54 0.0476594 0.998417 -0.0298562 126 128 127
-0.56 -0.514218 -0.54 0.0428191 0.999057 -0.00715157 118 120 119
-0.54 -0.51498 -0.54 0.0586256 0.998262 0.00601411 134 136 135
-0.52 -0.516694 -0.54 0.0407409 0.999165 -0.0032477 132 134 133
-0.5 -0.516581 -0.54 0.0382148 0.999268 -0.00185003 129 131 130
-0.48 -0.518107 -0.54 0.0652031 0.997857 0.00543226 127 129 128
-0.62 -0.512041 -0.56 0.0406258 0.998882 -0.0241518 130 131 132
-0.64 -0.511014 -0.56 0.0500683 0.99856 -0.0192459 130 131 132
-0.6 -0.512719 -0.56 0.0476068 0.99885 -0.00559464 131 133 132
-0.58 -0.51385 -0.56 0.04751 0.998869 0.00209853 125 127 126
-0.56 -0.514515 -0.56 0.0381648 0.999169 -0.014322 120 122 122
-0.54 -0.515111 -0.56 0.040092 0.998913 -0.0237767 125 127 127
-0.52 -0.516227 -0.56 0.0518423 0.998655 0.000164561 125 126 126
-0.5 -0.517063 -0.56 0.0341807 0.999382 -0.00825114 110 112 111
-0.48 -0.517982 -0.56 0.0534523 0.99856 0.00459148 120 122 121
-0.62 -0.51193 -0.58 0.0431351 0.999035 0.00831458 126 127 129
-0.64 -0.510998 -0.58 0.0448175 0.998972 0.0068504 126 127 129
-0.6 -0.512619 -0.58 0.0357791 0.999359 -0.00130167 137 139 138
-0.58 -0.51321 -0.58 0.0506748 0.998712 -0.00260575 123 125 124
-0.56 -0.514525 -0.58 0.0627276 0.998007 -0.00693388 122 124 124
-0.54 -0.516038 -0.58 0.0459977 0.998783 -0.0177701 124 126 125
-0.52 -0.516564 -0.58 0.0341076 0.999321 -0.0139549 122 124 124
-0.5 -0.517297 -0.58 0.0290775 0.99955 -0.00729696 121 123 122
-0.48 -0.51762 -0.58 0.0235649 0.999708 -0.00537673 116 118 118
-0.62 -0.511602 -0.6 0.0466177 0.998881 -0.00794056 133 134 135
-0.64 -0.51081 -0.6 0.0437098 0.999027 -0.00586517 133 134 135
-0.6 -0.51262 -0.6 0.0503369 0.998664 -0.0117078 132 134 135
-0.58 -0.513829 -0.6 0.0570669 0.998263 -0.0146168 123 124 125
-0.56 -0.515106 -0.6 0.054481 0.998416 -0.0140614 132 134 133
-0.54 -0.516017 -0.6 0.043729 0.999041 -0.0021645 126 128 127
-0.52 -0.51668 -0.6 0.0248682 0.999689 0.00203857 116 118 118
-0.5 -0.517247 -0.6 0.0313808 0.999318 0.0194502 121 123 123
-0.48 -0.517899 -0.6 0.0284445 0.999456 0.0167157 131 132 134
-0.62 -0.512191 -0.62 0.0535924 0.998312 -0.0223974 129 130 132
-0.64 -0.511067 -0.62 0.0555439 0.998315 -0.0167886 129 130 132
-0.6 -0.513299 -0.62 0.04315 0.998762 -0.0247454 123 124 124
-0.58 -0.513995 -0.62 0.0436617 0.999019 -0.0074197 129 131 130
-0.56 -0.515093 -0.62 0.0468537 0.998786 0.0152095 124 126 126
-0.54 -0.515948 -0.62 0.0417418 0.998801 0.0255738 124 126 126
-0.52 -0.516717 -0.62 0.0194402 0.999704 0.0146397 118 120 120
-0.5 -0.516482 -0.62 0.0150955 0.99985 0.00850098 118 119 121
-0.48 -0.517115 -0.62 0.0318545 0.999404 0.0132715 121 122 123
-0.62 -0.512584 -0.64 0.0549764 0.998283 -0.020197 115 116 118
-0.64 -0.511507 -0.64 0.0537857 0.998311 -0.021957 115 116 118
-0.6 -0.513686 -0.64 0.0397089 0.999023 -0.0194142 119 120 121
-0.58 -0.514172 -0.64 0.0247962 0.999627 -0.0114865 122 123 124
-0.56 -0.514573 -0.64 0.0280123 0.999458 0.0172738 121 122 124
-0.54 -0.514945 -0.64 0.0378254 0.998314 0.0440351 117 118 119
-0.52 -0.515848 -0.64 0.0421141 0.998096 0.0450637 118 120 121
-0.5 -0.516699 -0.64 0.0241545 0.999705 0.00269986 126 128 128
-0.48 -0.517358 -0.64 0.0322745 0.999413 -0.011527 129 131 131
0.5 -0.536803 -0.5 0.0023259 0.999982 -0.00551426 117 116 118
0.48 -0.536715 -0.48 -0.0191877 0.999538 -0.0235815 117 116 118
0.5 -0.536609 -0.48 0.0150379 0.999835 -0.0101663 117 116 118
0.48 -0.537465 -0.5 -0.0435254 0.998627 -0.0291412 117 116 118
0.52 -0.53753 -0.5 0.0380295 0.999276 -0.000950093 114 113 116
0.52 -0.537299 -0.48 0.0336797 0.999395 -0.00870524 114 113 116
0.54 -0.538074 -0.5 0.0240743 0.999636 -0.0121543 116 115 118
0.54 -0.538071 -0.48 0.0287101 0.99958 -0.00406592 116 115 118
0.56 -0.538608 -0.5 0.0293533 0.999569 1.54428e-05 119 117 120
0.56 -0.538291 -0.48 0.0258758 0.999517 -0.0171898 119 117 120
0.58 -0.539479 -0.5 0.0433262 0.999054 0.00382351 123 121 124
0.58 -0.539053 -0.48 0.0377539 0.99906 -0.0212797 123 121 124
0.592112 -0.54 -0.5 0.0427767 0.999078 -0.00358204 115 114 117
0.6 -0.54 -0.487233 0.0066591 0.999615 -0.0269182 115 114 117
0.6 -0.539802 -0.48 0.00976675 0.999714 -0.0218457 115 114 117
0.610719 -0.54 -0.5 -0.0323574 0.999227 -0.0223031 118 117 119
0.62 -0.539691 -0.5 -0.019001 0.999675 -0.0169872 118 117 119
0.62 -0.539837 -0.48 0.00172848 0.999972 0.00728646 118 117 119
0.6 -0.540336 -0.5 0.0165652 0.999821 -0.00917664 109 107 111
0.5 -0.536801 -0.52 -0.025655 0.999451 -0.0209508 122 121 123
0.48 -0.538302 -0.52 -0.0709638 0.996921 -0.0333662 122 121 123
0.52 -0.537085 -0.52 0.043372 0.999059 0.000351994 122 122 124
