ply
format ascii 1.0
comment Generated by the ZED SDK.
element vertex 801
property float32 x
property float32 y
property float32 z
property float32 nx
property float32 ny
property float32 nz
property uchar red
property uchar green
property uchar blue
end_header
-0.8 1.58847 -3.84 -0.00825384 -0.999706 0.0228161 117 117 114
-0.72 1.59028 -3.84 -0.0131807 -0.999912 -0.0014288 113 113 110
-0.64 1.58779 -3.84 -0.0177658 -0.999838 0.0028928 110 110 106
-1.85088 1.76 -3.92 0.503005 -0.845889 -0.177364 132 133 131
-1.84 1.76676 -3.92 0.530319 -0.828325 -0.180662 132 133 131
-1.84 1.76 -3.8979 0.547736 -0.806008 -0.224357 132 133 131
-1.76 1.82365 -3.84 0.201287 -0.973158 0.111563 136 138 137
-1.82597 1.76 -3.84 0.658702 -0.73529 -0.159562 136 138 137
-1.76 1.82822 -3.92 0.0167781 -0.987246 0.158317 136 138 137
-1.68 1.77516 -3.92 -0.679233 -0.669932 0.299723 144 145 144
-1.68 1.82914 -3.84 -0.401447 -0.7592 0.512304 144 145 144
-1.63949 1.76 -3.84 -0.737107 -0.623782 0.259941 157 157 164
-1.66887 1.76 -3.92 -0.741847 -0.61713 0.262325 157 157 164
-1.84 1.74763 -3.84 0.605919 -0.779856 -0.157121 128 131 126
-1.92 1.7324 -3.92 0.328084 -0.941733 -0.0741556 128 131 126
-1.92 1.72625 -3.84 0.257393 -0.963467 -0.0740251 128 131 126
-1.6 1.69808 -3.92 -0.65222 -0.732391 0.195481 148 149 152
-1.6 1.72087 -3.84 -0.68981 -0.696273 0.198408 148 149 152
-1.56653 1.68 -3.92 -0.522639 -0.846458 0.101772 151 152 157
-1.52 1.65065 -3.92 -0.547008 -0.833199 0.0809977 151 152 157
-1.55988 1.68 -3.84 -0.599827 -0.800111 -0.00547211 151 152 157
-1.52 1.64785 -3.84 -0.62741 -0.778212 -0.0272536 151 152 157
-1.84723 1.76 -4 0.50036 -0.865703 -0.0140446 132 134 131
-1.84 1.76438 -4 0.498593 -0.866814 -0.00618103 132 134 131
-1.76 1.79508 -4 -0.162545 -0.946456 0.278926 135 137 136
-1.71211 1.76 -4 -0.432369 -0.851929 0.295423 146 148 147
-1.68 1.76 -3.96208 -0.516518 -0.80433 0.293704 146 148 147
-1.92 1.73644 -4 0.311627 -0.949533 -0.0357063 130 132 129
-1.68 1.74781 -4 -0.41638 -0.871652 0.258554 140 140 139
-1.6 1.68254 -4 -0.577981 -0.808161 0.113199 149 150 153
-1.59585 1.68 -4 -0.485081 -0.856211 0.17776 153 154 161
-1.52 1.63703 -4 -0.503312 -0.848581 0.163057 153 154 161
-1.85519 1.76 -4.08 0.400459 -0.915925 0.0267232 132 133 131
-1.84 1.76701 -4.08 0.369469 -0.928742 0.0305226 132 133 131
-1.76 1.77662 -4.08 -0.48109 -0.862683 0.155982 136 138 136
-1.74137 1.76 -4.08 -0.611968 -0.776424 0.150538 146 146 148
-1.92 1.73778 -4.08 0.298688 -0.954338 -0.00503596 131 134 131
-1.68 1.72645 -4.08 -0.500018 -0.857872 0.118478 140 140 141
-1.6033 1.68 -4.08 -0.449777 -0.892712 0.027674 150 152 155
-1.6 1.68 -4.04499 -0.506829 -0.860734 0.0475471 150 152 155
-1.6 1.67835 -4.08 -0.447346 -0.893949 0.0271458 144 147 147
-1.84 1.76 -4.15537 0.141531 -0.986962 0.076644 133 135 133
-1.83722 1.76 -4.16 0.126639 -0.988645 0.0808958 139 139 138
-1.76 1.76668 -4.16 -0.57331 -0.812231 0.107685 139 139 138
-1.75209 1.76 -4.16 -0.629241 -0.770808 0.0995524 148 149 151
-1.84 1.75964 -4.16 0.129883 -0.988391 0.0788225 131 134 131
-1.92 1.74285 -4.16 0.229546 -0.973293 -0.00314783 131 134 131
-1.68 1.72015 -4.16 -0.46682 -0.88372 0.0334284 141 144 144
-1.60216 1.68 -4.16 -0.427557 -0.903983 0.00296867 151 154 159
-1.6 1.67898 -4.16 -0.42656 -0.904454 0.00313177 143 144 146
-1.76 1.76 -4.20631 -0.164645 -0.976196 0.141185 138 140 140
-1.84 1.75923 -4.24 0.120857 -0.991835 0.0407029 131 133 131
-1.92 1.73428 -4.24 0.26505 -0.96276 0.0533076 131 133 131
-1.76 1.75513 -4.24 -0.19872 -0.978853 0.0485596 136 138 136
-1.68 1.72122 -4.24 -0.415921 -0.909382 -0.00591071 141 144 145
-1.604 1.68 -4.24 -0.466917 -0.884172 -0.0151098 153 155 158
-1.6 1.67789 -4.24 -0.466676 -0.884289 -0.0156979 144 146 148
-1.84 1.75305 -4.32 0.121488 -0.992453 -0.016696 131 133 130
-1.92 1.73914 -4.32 0.174471 -0.982574 -0.0640998 131 133 130
-1.76 1.75617 -4.32 -0.19112 -0.981338 -0.0211943 135 137 136
-1.68 1.72155 -4.32 -0.39521 -0.918572 -0.0058614 142 145 146
-1.6 1.68 -4.29502 -0.466492 -0.883876 -0.0338919 145 147 150
-1.79678 1.76 -4.4 0.0148723 -0.999781 -0.0147312 142 144 145
-1.76 1.76042 -4.4 -0.541473 -0.840654 -0.0103571 142 144 145
-1.76 1.76 -4.38968 -0.192324 -0.980546 -0.0392482 142 144 145
-1.75936 1.76 -4.4 -0.550441 -0.83481 -0.0103134 148 153 156
-1.84 1.75922 -4.4 0.0952994 -0.995447 0.00165765 132 134 131
-1.92 1.74415 -4.4 0.162713 -0.986641 -0.00798166 132 134 131
-1.68 1.72192 -4.4 -0.425968 -0.904738 0.000984836 144 146 148
-1.76 1.76 -4.41478 -0.0715802 -0.99698 0.0301217 141 144 145
-1.84 1.75185 -4.48 0.105252 -0.992067 0.0687349 129 133 131
-1.92 1.7441 -4.48 0.0963813 -0.995344 0.000588818 129 133 131
-1.76 1.75741 -4.48 -0.177325 -0.983098 0.0455428 138 140 139
-1.68 1.72119 -4.48 -0.437843 -0.898857 0.018692 145 148 150
-1.60444 1.68 -4.48 -0.458848 -0.887572 0.0409172 157 159 167
-1.6 1.68 -4.4302 -0.484471 -0.872769 0.0596846 157 159 167
-1.6 1.6825 -4.4 -0.480589 -0.875064 0.0574286 157 159 167
-1.6 1.67771 -4.48 -0.457717 -0.88816 0.0408164 147 150 153
0.64 1.54408 -2.56 -0.0366592 -0.99925 0.0124525 87 88 83
0.72 1.54015 -2.64 -0.0202782 -0.999463 0.0257439 87 88 83
0.72 1.54089 -2.56 -0.0129928 -0.999686 0.0214025 87 88 83
0.64 1.54283 -2.64 -0.0406649 -0.9989 0.0233659 87 88 83
0.8 1.53931 -2.64 -0.000822276 -0.999101 0.0423819 85 85 81
0.8 1.54396 -2.56 0.0302357 -0.997484 0.0641199 85 85 81
0.88 1.5401 -2.64 -0.578406 -0.811499 0.0831616 80 80 73
0.88 1.54673 -2.56 -0.452375 -0.888775 0.0737348 80 80 73
0.910548 1.52 -2.56 -0.858316 -0.501699 0.107662 77 76 69
0.898263 1.52 -2.64 -0.858444 -0.502719 0.101723 77 76 69
0.902271 1.44 -2.56 -0.955751 0.251258 0.153004 58 56 48
0.889309 1.44 -2.64 -0.954974 0.254976 0.151697 58 56 48
0.88 1.41574 -2.64 -0.918624 0.357506 0.168287 59 57 48
0.858017 1.36 -2.64 -0.946101 0.290686 0.142807 59 57 48
0.88 1.38306 -2.56 -0.920845 0.360388 0.148878 59 57 48
0.870977 1.36 -2.56 -0.929828 0.335753 0.150632 59 57 48
0.84988 1.28 -2.56 -0.965748 0.225898 0.127674 70 70 55
0.841557 1.28 -2.64 -0.971457 0.205969 0.117675 70 70 55
0.72 1.5365 -2.72 -0.0301703 -0.999112 0.0294141 86 86 83
0.64 1.5415 -2.72 -0.0565298 -0.998253 0.0171676 86 86 83
0.8 1.53724 -2.72 -0.0191986 -0.998696 0.0472941 71 72 65
0.88 1.53382 -2.72 -0.712937 -0.692925 0.107593 80 79 73
0.890069 1.52 -2.72 -0.902075 -0.412729 0.126156 76 75 68
0.88 1.47547 -2.72 -0.946097 0.221947 0.235881 74 74 68
0.872284 1.44 -2.72 -0.946645 0.232031 0.223664 74 74 68
0.88 1.44 -2.68824 -0.939513 0.263261 0.21911 74 74 68
0.847977 1.36 -2.72 -0.961091 0.247274 0.123126 60 60 48
0.829546 1.28 -2.72 -0.961601 0.235698 0.140609 73 73 57
0.72 1.53602 -2.8 -0.0368593 -0.999195 -0.015808 87 87 83
0.64 1.53913 -2.8 -0.0321844 -0.999437 0.00950912 87 87 83
0.8 1.53213 -2.8 -0.0977288 -0.99518 -0.00805244 82 82 76
0.865314 1.52 -2.8 -0.752462 -0.48236 0.448475 79 79 73
0.88 1.52 -2.78618 -0.768027 -0.215981 0.602898 79 79 73
0.85952 1.44 -2.8 -0.978399 0.150287 0.14195 72 72 65
0.838908 1.36 -2.8 -0.956188 0.260401 0.133776 65 66 54
0.815882 1.28 -2.8 -0.953986 0.261092 0.147451 74 73 57
0.72 1.53793 -2.88 0.00590257 -0.99986 -0.0156606 87 87 83
0.64 1.53892 -2.88 -0.00899918 -0.999958 -0.00199624 87 87 83
0.8 1.54033 -2.88 -0.128664 -0.991602 -0.0130984 82 83 76
0.846795 1.52 -2.88 -0.696165 -0.712908 0.084362 77 78 71
0.85067 1.44 -2.88 -0.974688 0.183674 0.127463 59 59 52
0.82557 1.36 -2.88 -0.962752 0.253309 0.0945668 67 66 53
0.806805 1.28 -2.88 -0.970513 0.231916 0.065728 76 76 59
0.72 1.53899 -2.96 0.0154124 -0.99969 0.0195508 85 85 81
0.64 1.53892 -2.96 -0.00556419 -0.999821 0.0181008 85 85 81
0.8 1.54165 -2.96 -0.310825 -0.942001 0.12658 81 82 76
0.840267 1.52 -2.96 -0.740895 -0.635902 0.21611 78 78 71
0.839164 1.44 -2.96 -0.965129 0.110949 0.2371 47 47 38
0.824453 1.36 -2.96 -0.968931 0.193679 0.15382 65 65 52
0.804328 1.28 -2.96 -0.967502 0.200644 0.15389 80 81 63
0.72 1.53506 -3.04 -0.0938972 -0.994229 0.0518908 85 85 79
0.64 1.53704 -3.04 -0.0152243 -0.999708 0.018741 85 85 79
0.787217 1.52 -3.04 -0.514022 -0.469838 0.717658 81 81 75
0.8 1.52 -3.03148 -0.556995 -0.422995 0.714725 81 81 75
0.8 1.49832 -3.04 -0.651461 -0.264488 0.711087 75 75 70
0.807286 1.44 -3.04 -0.937239 -0.0321791 0.3472 54 54 46
0.802354 1.36 -3.04 -0.943819 0.141403 0.298681 55 55 43
0.8 1.34579 -3.04 -0.942998 0.164837 0.289108 64 64 54
0.783472 1.28 -3.04 -0.935417 0.217504 0.278725 64 64 54
0.8 1.28 -2.98203 -0.959694 0.185292 0.211316 64 64 54
0.72 1.53546 -3.12 -0.255382 -0.965856 0.0436122 84 85 79
0.64 1.53441 -3.12 0.0153417 -0.999579 0.0246335 84 85 79
0.754559 1.52 -3.12 -0.598162 -0.796817 0.0853491 79 80 74
0.8 1.44 -3.06018 -0.939843 -0.0562479 0.336944 73 74 67
0.782698 1.44 -3.12 -0.980397 -0.0775716 0.18112 73 74 67
0.8 1.36 -3.0473 -0.941847 0.139199 0.305855 63 63 54
0.774674 1.36 -3.12 -0.961578 0.143092 0.234292 63 63 54
0.762593 1.28 -3.12 -0.968997 0.137791 0.205082 74 75 61
0.72 1.53449 -3.2 -0.194257 -0.980814 -0.0164094 83 83 79
0.64 1.53275 -3.2 0.0218039 -0.999547 0.020736 83 83 79
0.768299 1.52 -3.2 -0.638471 -0.767738 -0.0541596 80 80 74
0.776339 1.44 -3.2 -0.994261 0.024621 0.104105 75 75 69
0.760074 1.36 -3.2 -0.972072 0.16301 0.168829 65 65 54
0.750721 1.28 -3.2 -0.98262 0.114872 0.145816 76 77 61
0 1.5755 -3.2 -0.0987064 -0.994527 0.0342432 101 102 98
0.08 1.56481 -3.28 -0.0813205 -0.996404 0.0237714 101 102 98
0.08 1.56779 -3.2 -0.0818322 -0.996074 0.0337722 101 102 98
0 1.57297 -3.28 -0.105234 -0.9943 0.0171178 101 102 98
0.16 1.55991 -3.28 -0.0462882 -0.998642 0.0238941 102 102 99
0.16 1.56182 -3.2 -0.0508044 -0.998463 0.0221668 102 102 99
0.24 1.55799 -3.28 -0.0384884 -0.998942 0.0251756 101 101 98
0.24 1.55937 -3.2 -0.0442527 -0.99891 0.0148792 101 101 98
0.32 1.55372 -3.28 -0.0693455 -0.997454 0.0166453 97 97 93
0.32 1.55436 -3.2 -0.0729381 -0.997295 0.00910774 97 97 93
0.4 1.54684 -3.28 -0.0779176 -0.996841 0.0153757 97 97 92
0.4 1.54786 -3.2 -0.07894 -0.996849 0.00780292 97 97 92
0.48 1.54145 -3.28 -0.062019 -0.997975 0.0141462 94 94 90
0.48 1.5409 -3.2 -0.0675684 -0.997705 -0.00440223 94 94 90
0.56 1.53717 -3.28 -0.0733457 -0.997279 0.00748261 91 92 85
0.56 1.53739 -3.2 -0.0632292 -0.997885 0.015114 91 92 85
0.64 1.52855 -3.28 -0.0948992 -0.99548 0.00384289 88 88 82
0.64 1.53275 -3.2 -0.0578912 -0.996949 0.0523514 88 88 82
0.08 1.56398 -3.36 -0.0894782 -0.995695 0.0241821 101 101 98
0 1.57335 -3.36 -0.106646 -0.993888 0.0285275 101 101 98
0.16 1.5586 -3.36 -0.0521446 -0.998294 0.0262585 99 99 96
0.24 1.55532 -3.36 -0.0411999 -0.998697 0.0301045 100 100 97
0.32 1.55166 -3.36 -0.0628421 -0.997545 0.030887 98 98 95
0.4 1.54562 -3.36 -0.0771207 -0.996662 0.0267722 92 92 89
0.48 1.53891 -3.36 -0.0638613 -0.997737 0.0210594 94 94 90
0.56 1.53509 -3.36 -0.0561211 -0.998169 0.0225761 91 91 87
0.64 1.53015 -3.36 -0.0730844 -0.997246 0.0126407 88 88 84
0.08 1.56056 -3.44 -0.0762274 -0.996489 0.034635 99 100 96
0 1.56678 -3.44 -0.0758375 -0.995845 0.0504147 99 100 96
0.16 1.5554 -3.44 -0.0512051 -0.998144 0.0329617 101 102 98
0.24 1.55284 -3.44 -0.0425626 -0.9983 0.0398257 98 98 95
0.32 1.54916 -3.44 -0.0605152 -0.997349 0.0404198 97 97 93
0.4 1.54217 -3.44 -0.0694334 -0.997214 0.0272811 95 95 92
0.48 1.53779 -3.44 -0.0554886 -0.998302 0.0177091 93 93 89
0.56 1.53379 -3.44 -0.059209 -0.998143 0.0143047 91 92 88
0.64 1.52836 -3.44 -0.0661839 -0.997642 0.0181758 88 88 83
0.08 1.55927 -3.52 -0.0702595 -0.997309 0.0209344 98 98 95
0 1.56499 -3.52 -0.0674425 -0.997346 0.0274207 98 98 95
0.16 1.5538 -3.52 -0.0614391 -0.997872 0.0218564 101 101 97
0.24 1.54951 -3.52 -0.0566548 -0.997838 0.0332967 100 100 97
0.32 1.54423 -3.52 -0.0542585 -0.997452 0.0463187 98 98 94
0.4 1.54102 -3.52 -0.0515688 -0.997843 0.0406316 94 94 90
0.48 1.53658 -3.52 -0.052448 -0.998156 0.0305687 93 93 90
0.56 1.53286 -3.52 -0.0553981 -0.998031 0.0294035 90 90 87
0.64 1.52699 -3.52 -0.0718294 -0.997292 0.0157822 87 87 82
0.08 1.55729 -3.6 -0.0620047 -0.997128 0.0434831 102 103 100
0 1.56176 -3.6 -0.0563595 -0.997182 0.0495097 102 103 100
0.16 1.55199 -3.6 -0.0655052 -0.997069 0.039527 100 100 96
0.24 1.54702 -3.6 -0.0597305 -0.997229 0.0443581 100 100 97
0.32 1.54194 -3.6 -0.0652465 -0.997186 0.0369148 96 96 94
0.4 1.53627 -3.6 -0.0501909 -0.997892 0.0411283 96 96 92
0.48 1.53313 -3.6 -0.0490373 -0.998222 0.0338925 92 92 88
0.56 1.52837 -3.6 -0.035433 -0.999173 0.0199508 87 87 83
0.64 1.52561 -3.6 -0.0441727 -0.998869 -0.0176157 82 82 77
0.08 1.55247 -3.68 -0.060802 -0.997598 0.0331831 102 102 99
0 1.55714 -3.68 -0.0579657 -0.997855 0.0304251 102 102 99
0.16 1.54769 -3.68 -0.0682531 -0.996892 0.0393466 100 100 97
0.24 1.54192 -3.68 -0.059916 -0.997027 0.0484428 99 99 96
0.32 1.53803 -3.68 -0.0557349 -0.997217 0.0495196 96 96 93
0.4 1.53367 -3.68 -0.0398813 -0.998252 0.0436247 97 97 93
0.48 1.5311 -3.68 -0.0322107 -0.999326 0.0176179 93 93 89
0.56 1.52782 -3.68 -0.0125249 -0.999904 0.00599761 89 90 85
0.64 1.53137 -3.68 0.0247295 -0.999501 0.0196687 83 83 78
0.08 1.55225 -3.76 -0.065965 -0.997555 0.023062 100 100 96
0 1.55682 -3.76 -0.0523762 -0.998198 0.0292894 100 100 96
0.16 1.54608 -3.76 -0.0789867 -0.996541 0.0258489 100 100 97
0.24 1.5392 -3.76 -0.0719701 -0.996772 0.0355684 98 98 95
0.32 1.53468 -3.76 -0.0609177 -0.997119 0.0451913 94 95 91
0.4 1.52874 -3.76 -0.0275873 -0.998721 0.0423649 94 94 92
0.48 1.52961 -3.76 -0.00191634 -0.999639 0.0268159 91 91 88
0.56 1.52968 -3.76 -0.0302217 -0.999459 0.0129759 87 88 84
0.64 1.52561 -3.76 -0.0784027 -0.993767 0.0792505 83 84 79
0.08 1.54861 -3.84 -0.057755 -0.997079 0.0499691 102 102 98
0 1.5517 -3.84 -0.0384927 -0.997221 0.0637929 102 102 98
0.16 1.54317 -3.84 -0.078467 -0.996174 0.0384828 100 100 97
0.24 1.53637 -3.84 -0.0816053 -0.996036 0.0353915 99 99 95
0.32 1.5301 -3.84 -0.0575737 -0.997006 0.0516202 94 95 91
0.4 1.52625 -3.84 -0.0191923 -0.999108 0.0376166 95 95 91
0.48 1.52806 -3.84 -0.000877027 -0.999749 0.0223895 91 92 88
0.56 1.52658 -3.84 -0.078583 -0.993707 0.0798203 88 88 84
0.599954 1.52 -3.84 -0.318246 -0.900368 0.296743 83 83 78
0.64 1.52 -3.79705 -0.306803 -0.907909 0.285612 83 83 78
0.64 1.49576 -3.84 -0.46631 -0.77039 0.434803 80 81 75
-2.56 1.68056 -4.48 0.115382 -0.991164 -0.0654251 119 123 111
-2.48 1.69515 -4.56 0.124969 -0.990546 -0.0565755 119 123 111
-2.48 1.68598 -4.48 0.0835749 -0.991111 -0.103506 119 123 111
-2.56 1.68196 -4.56 0.119917 -0.991598 -0.0485021 119 123 111
-2.4 1.70159 -4.56 0.103189 -0.991909 -0.0739536 119 124 111
-2.4 1.69572 -4.48 0.123898 -0.987934 -0.092931 119 124 111
-2.32 1.71525 -4.56 0.0472509 -0.99835 -0.0326206 122 126 116
-2.32 1.70271 -4.48 0.0453772 -0.992346 -0.114849 122 126 116
-2.24 1.70909 -4.56 -0.041154 -0.999019 -0.0163312 123 127 118
-2.24 1.7095 -4.48 0.0217164 -0.999753 0.00478272 123 127 118
-2.16 1.70585 -4.56 -0.0173232 -0.999801 0.00994356 124 128 120
-2.16 1.70616 -4.48 -0.0199269 -0.999796 0.0032893 124 128 120
-2.08 1.7061 -4.56 0.0683477 -0.997642 0.00619503 126 129 122
-2.08 1.7062 -4.48 0.0739615 -0.997243 0.00609617 126 129 122
-2 1.71728 -4.56 0.192109 -0.980871 0.0314151 125 128 125
-2 1.71896 -4.48 0.21977 -0.975126 0.0288299 125 128 125
-1.92 1.73946 -4.56 0.274894 -0.958071 0.0808337 128 132 128
-1.92 1.7441 -4.48 0.299423 -0.952515 0.055328 128 132 128
-2.48 1.69453 -4.64 0.107983 -0.99396 -0.0195652 120 122 113
-2.56 1.6955 -4.64 -0.00875418 -0.995936 -0.0896326 120 122 113
-2.4 1.71101 -4.64 0.0653144 -0.997702 -0.01804 122 125 114
-2.32 1.70778 -4.64 0.0114416 -0.998751 0.0486336 122 126 116
-2.24 1.70933 -4.64 -0.0220459 -0.998945 0.0402886 124 128 118
-2.16 1.70435 -4.64 -0.0160461 -0.999868 -0.00257833 123 126 118
-2.08 1.70558 -4.64 0.0689229 -0.997426 -0.0197865 122 124 118
-2 1.71548 -4.64 0.156266 -0.987293 -0.0288768 126 129 125
-1.92 1.7291 -4.64 0.193502 -0.980672 -0.0289769 127 131 129
-2.48 1.69609 -4.72 0.0567583 -0.997249 0.0476686 121 123 114
-2.56 1.69602 -4.72 0.0224293 -0.997654 0.0646742 121 123 114
-2.4 1.70689 -4.72 0.0702245 -0.993923 0.0847634 122 124 115
-2.32 1.70391 -4.72 -0.0200457 -0.998764 0.0454761 123 125 117
-2.24 1.70272 -4.72 0.012843 -0.999212 0.0375467 124 127 118
-2.16 1.70509 -4.72 0.03605 -0.999346 -0.00277688 125 128 120
-2.08 1.70928 -4.72 0.0932077 -0.994284 -0.052067 124 127 121
-2 1.72021 -4.72 0.184054 -0.980245 -0.0724106 127 130 126
-1.92 1.74005 -4.72 0.221743 -0.971134 -0.0879112 129 134 131
-2.48 1.68856 -4.8 0.0735762 -0.995304 0.0629047 121 123 114
-2.56 1.6814 -4.8 0.0875087 -0.991207 0.0992539 121 123 114
-2.4 1.6936 -4.8 0.0872871 -0.995294 0.0420775 122 125 115
-2.32 1.69954 -4.8 0.0385685 -0.999101 -0.0175737 124 127 118
-2.24 1.70241 -4.8 0.0319442 -0.99852 -0.0440236 125 128 119
-2.16 1.70558 -4.8 0.0615688 -0.997006 -0.0467852 125 128 120
-2.08 1.71401 -4.8 0.124161 -0.991711 -0.0330566 126 129 123
-2 1.72781 -4.8 0.185697 -0.982349 -0.0224987 128 131 128
-1.92 1.74664 -4.8 0.232029 -0.972691 0.00581317 127 131 129
-2.56 1.68 -4.8558 0.0662597 -0.997566 0.0217323 121 123 114
-2.55206 1.68 -4.88 0.0651018 -0.997853 -0.00719336 121 123 114
-2.48 1.68634 -4.88 0.0895163 -0.994886 -0.046792 121 123 114
-2.4 1.69695 -4.88 0.128552 -0.99123 -0.0306216 123 126 116
-2.32 1.70945 -4.88 0.0748133 -0.995831 -0.0521893 123 126 118
-2.24 1.71075 -4.88 0.031221 -0.99812 -0.0527499 125 128 119
-2.16 1.71434 -4.88 0.0340388 -0.998432 -0.0444403 124 126 120
-2.08 1.71674 -4.88 0.0893809 -0.995878 -0.0154162 126 129 124
-2 1.72623 -4.88 0.162859 -0.986342 -0.0246326 127 131 127
-1.92 1.73874 -4.88 0.173622 -0.982913 -0.0611367 129 131 130
-2.56 1.67951 -4.88 0.0606624 -0.979128 -0.193983 119 122 112
-2.56 1.68 -4.88224 0.0606524 -0.974855 -0.214428 120 122 113
-2.56 1.69606 -4.96 0.0287781 -0.995535 -0.0898971 120 122 113
-2.48 1.6955 -4.96 0.0415132 -0.994835 -0.0926289 120 122 113
-2.4 1.70085 -4.96 0.0767345 -0.992216 -0.0980732 123 124 116
-2.32 1.70963 -4.96 0.0379525 -0.999016 -0.0229421 124 126 119
-2.24 1.71081 -4.96 0.0448343 -0.998989 -0.00344875 124 126 121
-2.16 1.7133 -4.96 0.0300004 -0.999251 -0.0244438 126 127 122
-2.08 1.714 -4.96 0.0985927 -0.993945 -0.0485022 127 129 124
-2 1.72747 -4.96 0.205999 -0.977809 -0.0381265 128 130 127
-1.92 1.75379 -4.96 0.464021 -0.845851 -0.2631 130 131 131
-1.96 1.76 -5.04 0.530979 -0.781616 -0.327317 134 136 137
-1.92 1.79063 -5.04 0.567935 -0.786783 -0.241707 134 136 137
-1.92 1.76 -4.97392 0.560686 -0.755267 -0.339415 134 136 137
-2.48 1.69931 -5.04 0.0805946 -0.994392 -0.0684811 120 122 115
-2.56 1.69566 -5.04 0.0641473 -0.996851 -0.0466251 120 122 115
-2.4 1.71247 -5.04 0.0782491 -0.994805 -0.0651147 122 125 117
-2.32 1.71328 -5.04 0.00208615 -0.998501 -0.0546872 123 125 120
-2.24 1.71057 -5.04 0.0165072 -0.999465 -0.0282369 126 127 121
-2.16 1.71511 -5.04 0.0810711 -0.995935 -0.0392652 126 128 122
-2.08 1.72244 -5.04 0.12832 -0.985215 -0.113514 126 128 125
-2 1.73625 -5.04 0.278051 -0.941743 -0.189228 124 127 122
-1.98186 1.76 -5.12 0.514018 -0.854907 -0.0701431 135 138 138
-1.92 1.79252 -5.12 0.465229 -0.884943 -0.0209154 135 138 138
-2.48 1.71029 -5.12 0.0558124 -0.991509 -0.117456 121 123 116
-2.56 1.7006 -5.12 0.119944 -0.990887 -0.0612911 121 123 116
-2.4 1.71265 -5.12 0.0700236 -0.996909 -0.0356213 123 126 117
-2.32 1.71615 -5.12 0.00319944 -0.999617 -0.0274772 125 128 121
-2.24 1.71451 -5.12 0.0109508 -0.998889 -0.0458421 127 130 122
-2.16 1.71845 -5.12 0.113582 -0.992584 -0.0433098 129 131 123
-2.08 1.73265 -5.12 0.188279 -0.976646 -0.103504 123 126 122
-2 1.7529 -5.12 0.205118 -0.965172 -0.162386 126 127 125
-2.80726 1.68 -3.92 0.35892 -0.91579 0.180289 112 118 111
-2.8 1.68285 -3.92 0.342208 -0.9168 0.205845 112 118 111
-2.8 1.68 -3.8812 0.364051 -0.928883 -0.0681381 112 118 111
-2.8 1.68 -3.92954 0.31179 -0.910514 0.271573 114 120 110
-2.72 1.68 -3.95999 0.0334239 -0.991618 0.124807 113 120 109
-2.72 1.68486 -3.92 0.0489099 -0.988506 0.143054 113 120 109
-2.64 1.68 -3.98463 0.308769 -0.914373 0.261887 116 122 113
-2.64 1.69935 -3.92 0.202835 -0.950017 0.237329 116 122 113
-2.62864 1.68 -4 0.332791 -0.942336 0.0353942 120 125 116
-2.56 1.70265 -4 0.182642 -0.977892 0.101831 120 125 116
-2.56 1.71003 -3.92 0.131844 -0.987082 0.0910259 120 125 116
-2.72 1.68885 -4.08 -0.00405819 -0.990584 -0.136849 112 119 110
-2.72 1.68 -4.01946 0.0290426 -0.988507 -0.148358 112 119 110
-2.8 1.68 -4.04798 -0.00101328 -0.96319 -0.268821 112 119 110
-2.8 1.69019 -4.08 -0.0159985 -0.952737 -0.303376 112 119 110
-2.64 1.69003 -4.08 0.0235925 -0.999457 -0.022989 112 118 110
-2.64 1.68 -4.01965 0.228313 -0.958495 -0.170766 112 118 110
-2.56 1.68334 -4.08 -0.214003 -0.952103 0.218411 115 119 110
-2.64 1.68638 -4.16 -0.22795 -0.965426 0.126459 114 120 112
-2.72 1.70171 -4.16 -0.188138 -0.981435 -0.0372766 114 120 112
-2.61615 1.68 -4.16 -0.242115 -0.957664 0.155755 114 120 109
-2.56 1.68 -4.093 -0.264058 -0.936983 0.228769 114 120 109
-2.56 1.66772 -4.16 -0.200746 -0.970035 0.136871 114 120 109
-2.72 1.69511 -4.24 -0.14743 -0.986558 0.0704867 115 121 109
-2.65656 1.68 -4.24 -0.222374 -0.970205 0.0961837 115 121 109
-2.64 1.68 -4.20357 -0.225128 -0.967369 0.116248 115 121 109
-2.64 1.67626 -4.24 -0.212675 -0.974134 0.0763701 111 115 99
-2.56 1.66394 -4.24 -0.152053 -0.987628 0.0383392 106 111 97
-2.8 1.69193 -4.24 0.0193314 -0.999247 0.0336436 114 119 108
-2.72 1.69078 -4.32 -0.13506 -0.990767 0.0117827 114 119 108
-2.8 1.69087 -4.32 0.0184961 -0.999157 -0.0366393 114 119 108
-2.67299 1.68 -4.32 -0.207558 -0.977996 0.021056 115 119 109
-2.64 1.67361 -4.32 -0.172084 -0.984855 0.0211704 102 106 89
-2.56 1.66151 -4.32 -0.150199 -0.988363 -0.0240596 93 93 82
-2.88 1.68382 -4.32 -0.0212658 -0.982818 -0.183347 114 118 102
-2.8 1.69701 -4.4 -0.0806903 -0.995375 -0.0521342 114 118 102
-2.88 1.70827 -4.4 -0.131681 -0.982468 -0.131975 114 118 102
-2.72 1.69217 -4.4 -0.152574 -0.987953 0.0258734 102 106 91
-2.66688 1.68 -4.4 -0.257438 -0.966281 0.00516841 94 98 84
-2.64 1.67202 -4.4 -0.220156 -0.975464 0.000496181 83 84 70
-2.56 1.66794 -4.4 -0.0330897 -0.998031 -0.053289 111 114 98
-2.8 1.69622 -4.48 -0.129871 -0.991401 0.0160148 88 91 77
-2.88 1.70545 -4.48 -0.114558 -0.992803 0.0349211 88 91 77
-2.72 1.68551 -4.48 -0.144859 -0.988432 0.0449128 109 112 95
-2.68413 1.68 -4.48 -0.169539 -0.984845 0.0365667 101 104 91
-2.56461 1.68 -4.48 0.118028 -0.980569 -0.156696 119 122 110
-2.56 1.68056 -4.48 0.118182 -0.980523 -0.156865 119 122 110
-2.56 1.68 -4.47653 0.118108 -0.980548 -0.156766 119 122 110
-2.64 1.67139 -4.48 -0.123404 -0.99235 -0.00366599 106 107 92
0.64 1.53275 -3.2 0.0215667 -0.998381 0.0526388 80 80 74
0.72 1.53026 -3.28 -0.301288 -0.953203 0.0250737 80 80 74
0.72 1.53449 -3.2 -0.169632 -0.98413 0.0520961 80 80 74
0.64 1.52855 -3.28 0.0281685 -0.999558 0.00945359 80 80 74
0.768299 1.52 -3.2 -0.677091 -0.710416 0.19198 78 79 73
0.742735 1.52 -3.28 -0.580341 -0.812679 0.0525009 78 79 73
0.776339 1.44 -3.2 -0.985207 0.00725166 0.171215 70 69 65
0.766232 1.44 -3.28 -0.995586 -0.0332539 0.0877663 70 69 65
0.760074 1.36 -3.2 -0.984071 0.148512 0.097716 68 69 56
0.752833 1.36 -3.28 -0.978697 0.167953 0.118085 68 69 56
0.750721 1.28 -3.2 -0.982453 0.144208 0.118275 78 78 63
0.738679 1.28 -3.28 -0.975577 0.167723 0.141843 78 78 63
0.72 1.53403 -3.36 -0.330985 -0.943357 -0.0229483 82 83 77
0.64 1.53015 -3.36 0.0585329 -0.998246 -0.00888636 82 83 77
0.746915 1.52 -3.36 -0.623501 -0.781758 -0.010021 78 79 74
0.758719 1.44 -3.36 -0.995256 -0.0102113 0.0967517 57 57 52
0.740811 1.36 -3.36 -0.964802 0.196425 0.174854 69 70 57
0.728225 1.28 -3.36 -0.968919 0.162822 0.186238 77 77 62
0.72 1.53547 -3.44 -0.414405 -0.909713 0.0262878 84 85 79
0.64 1.52836 -3.44 0.083966 -0.996175 0.0241979 84 85 79
0.742534 1.52 -3.44 -0.73023 -0.681282 0.0511727 80 81 74
0.746371 1.44 -3.44 -0.985697 0.105806 0.131172 53 54 45
0.72382 1.36 -3.44 -0.976416 0.171525 0.131114 67 67 54
0.72 1.33308 -3.44 -0.982533 0.136011 0.127001 72 73 59
0.712878 1.28 -3.44 -0.979249 0.140705 0.145851 72 73 59
0.72 1.28 -3.39466 -0.969462 0.15354 0.19123 72 73 59
0.72 1.53264 -3.52 -0.508593 -0.859724 0.0469874 84 85 79
0.64 1.52699 -3.52 0.0618576 -0.997753 0.0257362 84 85 79
0.735559 1.52 -3.52 -0.746152 -0.663021 0.0605064 78 78 72
0.738286 1.44 -3.52 -0.984583 0.137386 0.108269 57 58 48
0.72 1.37568 -3.52 -0.956128 0.277449 0.0940259 57 59 47
0.715397 1.36 -3.52 -0.959526 0.264883 0.0956438 57 59 47
0.72 1.36 -3.47288 -0.975344 0.194173 0.10489 57 59 47
0.698735 1.28 -3.52 -0.972249 0.196985 0.126208 73 75 59
0.72 1.52851 -3.6 -0.650191 -0.75744 0.0594633 84 85 78
0.64 1.52561 -3.6 0.000596687 -0.999964 0.00842232 84 85 78
0.728055 1.52 -3.6 -0.783308 -0.618268 0.0645946 77 77 72
0.728123 1.44 -3.6 -0.974465 0.189144 0.121006 59 59 51
0.72 1.40729 -3.6 -0.962281 0.245081 0.118114 64 65 55
0.707723 1.36 -3.6 -0.965647 0.235728 0.109354 64 65 55
0.692805 1.28 -3.6 -0.98306 0.162285 0.0851809 75 76 60
0.72 1.52283 -3.68 -0.786226 -0.61522 0.0579031 82 83 77
0.64 1.53137 -3.68 -0.106161 -0.994349 -1.63446e-05 82 83 77
0.722105 1.52 -3.68 -0.835941 -0.545455 0.0606724 76 77 71
0.72 1.48948 -3.68 -0.970226 0.117535 0.211769 77 78 71
0.716108 1.44 -3.68 -0.967919 0.130856 0.214499 77 78 71
0.72 1.44 -3.66104 -0.971273 0.143594 0.189762 77 78 71
0.69642 1.36 -3.68 -0.960791 0.192816 0.199253 65 65 53
0.688177 1.28 -3.68 -0.990167 0.0727836 0.119465 73 74 56
0.64 1.52561 -3.76 -0.118069 -0.984559 0.129239 82 83 76
0.686313 1.52 -3.76 -0.499332 -0.815996 0.291234 82 83 76
0.72 1.52 -3.70988 -0.937822 -0.255647 0.234807 82 83 76
0.697726 1.44 -3.76 -0.96474 0.0532656 0.25776 69 70 64
0.676953 1.36 -3.76 -0.960359 0.129047 0.247098 56 57 45
0.678225 1.28 -3.76 -0.97599 -0.00226639 0.217802 64 65 49
0.64 1.52 -3.79705 -0.234979 -0.926563 0.293711 81 82 75
0.64 1.49576 -3.84 -0.59497 -0.605959 0.528038 53 55 46
0.673445 1.44 -3.84 -0.917041 -0.0660475 0.393285 53 55 46
0.652696 1.36 -3.84 -0.944894 0.126578 0.301915 57 59 47
0.649108 1.28 -3.84 -0.938861 0.0421116 0.34171 58 60 48
0.511083 0.64 -4.56 -0.981904 0.0251446 0.187701 127 130 111
0.525033 0.56 -4.48 -0.980311 0.0218765 0.196246 127 130 111
0.528183 0.64 -4.48 -0.977186 0.0384729 0.208871 127 130 111
0.509389 0.56 -4.56 -0.983254 0.0170732 0.181436 127 130 111
0.5239 0.48 -4.48 -0.981148 0.0137492 0.192768 129 133 114
0.508157 0.48 -4.56 -0.984015 0.0063802 0.177969 129 133 114
0.52284 0.4 -4.48 -0.9838 0.0121552 0.178855 131 135 117
0.508704 0.4 -4.56 -0.985754 0.0093875 0.167934 131 135 117
0.521132 0.32 -4.48 -0.982262 0.050821 0.180494 132 137 120
0.506238 0.32 -4.56 -0.986249 0.0323348 0.16207 132 137 120
0.514911 0.24 -4.48 -0.987428 0.068661 0.142376 134 139 121
0.50451 0.24 -4.56 -0.987898 0.0415265 0.149441 134 139 121
0.507761 0.16 -4.48 -0.994548 0.0473811 0.0928929 135 140 122
0.501264 0.16 -4.56 -0.988633 0.0590805 0.138256 135 140 122
0.505334 0.08 -4.48 -0.983985 0.119619 0.132154 135 140 125
0.493113 0.08 -4.56 -0.988309 0.102487 0.112883 135 140 125
0.490951 -0 -4.48 -0.9819 0.146535 0.120002 136 140 125
0.483562 -0 -4.56 -0.989834 0.119838 0.0765956 136 140 125
0.496847 0.64 -4.64 -0.97459 0.00486023 0.223942 124 128 109
0.495654 0.56 -4.64 -0.978212 0.0123308 0.207243 124 128 109
0.494586 0.48 -4.64 -0.978891 0.00405926 0.204341 128 131 112
0.49599 0.4 -4.64 -0.975944 0.00431715 0.217979 130 134 115
0.493742 0.32 -4.64 -0.976186 0.0330516 0.214403 133 137 117
0.488859 0.24 -4.64 -0.980484 0.0367709 0.193131 134 139 119
0.487111 0.16 -4.64 -0.986982 0.0200775 0.159576 135 140 122
0.488102 0.08 -4.64 -0.985011 0.0615606 0.161133 136 141 123
0.48 0.0155649 -4.64 -0.975242 0.169293 0.142278 132 136 115
0.477129 -0 -4.64 -0.974707 0.176798 0.136706 132 136 115
0.48 -0 -4.6127 -0.983904 0.15553 0.0880003 132 136 115
0.48 0.64 -4.69827 -0.92315 -0.0237124 0.383708 118 122 99
0.469814 0.64 -4.72 -0.90613 -0.0256001 0.422223 118 122 99
0.48 0.56 -4.70322 -0.919007 -0.00685047 0.394182 118 122 99
0.471916 0.56 -4.72 -0.898679 -0.00614931 0.438563 118 122 99
0.48 0.48 -4.70229 -0.91773 0.0135173 0.396975 122 125 103
0.471396 0.48 -4.72 -0.890388 0.019375 0.45479 122 125 103
0.48 0.4 -4.69829 -0.903084 0.029927 0.428421 125 129 106
0.467514 0.4 -4.72 -0.862971 0.0362264 0.503954 125 129 106
0.48 0.32 -4.69216 -0.920634 0.0340526 0.388938 128 133 109
0.465471 0.32 -4.72 -0.888988 0.0176925 0.457588 128 133 109
0.48 0.24 -4.68319 -0.960819 0.0100468 0.276992 130 134 110
0.467207 0.24 -4.72 -0.934334 -0.0197606 0.355852 130 134 110
0.48 0.16 -4.68332 -0.975377 0.00289784 0.220527 129 132 112
0.470111 0.16 -4.72 -0.950563 -0.00261269 0.31052 129 132 112
0.48 0.08 -4.67831 -0.962555 0.0843275 0.257636 130 134 114
0.465414 0.08 -4.72 -0.942306 0.0773492 0.325694 130 134 114
0.45965 -0 -4.72 -0.962045 0.0613068 0.265914 132 136 116
0.433605 0.64 -4.8 -0.924219 0.0429733 0.379437 118 121 99
0.428276 0.56 -4.8 -0.904378 0.0835099 0.41848 118 121 99
0.419079 0.48 -4.8 -0.894358 0.0628668 0.442913 122 126 103
0.418049 0.4 -4.8 -0.894201 -0.0237027 0.447038 125 129 105
0.425122 0.32 -4.8 -0.900965 -0.0735079 0.427619 128 132 108
0.429699 0.24 -4.8 -0.920039 -0.0613967 0.386986 130 134 110
0.435132 0.16 -4.8 -0.933913 -0.0344477 0.355837 131 135 112
0.437139 0.08 -4.8 -0.950088 0.00420411 0.311955 133 136 116
0.434216 -0 -4.8 -0.955905 0.0315743 0.291973 132 136 117
0.4 0.574869 -4.88 -0.962369 0.0990222 0.253064 114 117 98
0.398499 0.56 -4.88 -0.960322 0.0969604 0.261497 114 117 98
0.4 0.56 -4.87453 -0.958975 0.097569 0.266171 114 117 98
0.407511 0.64 -4.88 -0.955697 0.105829 0.274671 117 121 98
0.4 0.48 -4.8453 -0.95427 0.0577257 0.293321 119 123 100
0.392153 0.48 -4.88 -0.972338 0.0475672 0.228683 119 123 100
0.4 0.4 -4.83928 -0.943452 -0.0162811 0.33111 122 126 104
0.389551 0.4 -4.88 -0.969244 -0.00335888 0.246077 122 126 104
0.4 0.32 -4.85271 -0.945618 -0.0665084 0.318406 125 128 107
0.392372 0.32 -4.88 -0.964037 -0.0538229 0.260261 125 128 107
0.4 0.24 -4.87421 -0.962512 -0.0837943 0.257969 127 131 112
0.398504 0.24 -4.88 -0.965356 -0.0818478 0.247769 127 131 112
0.4 0.222664 -4.88 -0.95394 -0.0966702 0.283996 128 131 117
0.407177 0.16 -4.88 -0.954742 -0.0980387 0.280814 130 135 112
0.413124 0.08 -4.88 -0.969455 -0.0268015 0.243801 131 135 118
0.411355 -0 -4.88 -0.97334 0.0215318 0.228354 132 135 118
0.4 0.64 -4.90794 -0.967643 0.0994654 0.231891 114 117 98
0.390261 0.64 -4.96 -0.967956 0.137461 0.210154 114 117 98
0.37625 0.56 -4.96 -0.968463 0.106529 0.225236 114 117 98
0.373005 0.48 -4.96 -0.971909 0.0445547 0.231104 118 121 101
0.369804 0.4 -4.96 -0.974535 -0.0048871 0.224182 122 125 105
0.373039 0.32 -4.96 -0.974052 -0.0635907 0.217207 124 128 110
0.380845 0.24 -4.96 -0.973023 -0.105103 0.205378 126 130 114
0.4 0.16 -4.90564 -0.965411 -0.0992542 0.241103 128 130 116
0.39004 0.16 -4.96 -0.978645 -0.0878317 0.185846 128 130 116
0.4 0.08 -4.93855 -0.983216 -0.0372149 0.178609 129 131 118
0.39644 0.08 -4.96 -0.985676 -0.0394242 0.16398 129 131 118
0.4 -0 -4.93687 -0.985714 0.00488853 0.168355 130 132 120
0.39642 -0 -4.96 -0.988077 -0.000470538 0.153958 130 132 120
0.3735 0.64 -5.04 -0.96763 0.15913 0.195883 113 116 101
0.360631 0.56 -5.04 -0.97714 0.111047 0.181291 113 116 101
0.353165 0.48 -5.04 -0.978388 0.0526045 0.199974 118 122 101
0.353517 0.4 -5.04 -0.979762 -0.0155322 0.199562 121 125 106
0.35608 0.32 -5.04 -0.977216 -0.0692995 0.200617 124 127 111
0.365019 0.24 -5.04 -0.975206 -0.114524 0.18936 125 130 114
0.374821 0.16 -5.04 -0.979314 -0.114534 0.166812 128 130 117
0.383435 0.08 -5.04 -0.9861 -0.0530949 0.157444 129 131 118
0.383941 -0 -5.04 -0.988217 -0.0108156 0.152678 130 132 119
0.357295 0.64 -5.12 -0.976467 0.130773 0.171494 113 117 102
0.348675 0.56 -5.12 -0.982184 0.106641 0.154732 113 117 102
0.338646 0.48 -5.12 -0.980588 0.0656448 0.184765 118 122 104
0.336829 0.4 -5.12 -0.979335 -0.00661176 0.202139 122 125 107
0.340081 0.32 -5.12 -0.978187 -0.076403 0.193166 124 127 111
0.349827 0.24 -5.12 -0.976006 -0.129627 0.174953 126 129 114
0.363072 0.16 -5.12 -0.980421 -0.130122 0.147791 128 130 117
0.370454 0.08 -5.12 -0.986424 -0.0531673 0.155374 128 130 118
0.372456 -0 -5.12 -0.989549 -0.0247635 0.142056 129 132 120
0 1.59479 -2.56 -0.0822134 -0.996609 -0.00338925 101 101 97
0.08 1.58846 -2.64 -0.0853128 -0.996292 0.0111584 101 101 97
0.08 1.58833 -2.56 -0.0853582 -0.996347 -0.00249867 101 101 97
0 1.5952 -2.64 -0.0830654 -0.996481 0.0112014 101 101 97
0.16 1.58135 -2.64 -0.0940796 -0.995511 0.0103765 100 101 96
0.16 1.58095 -2.56 -0.0901092 -0.995931 -0.00127204 100 101 96
0.24 1.57366 -2.64 -0.0880412 -0.995886 0.0214231 99 99 95
0.24 1.57445 -2.56 -0.0772228 -0.996916 0.0139971 99 99 95
0.32 1.5671 -2.64 -0.0731089 -0.996762 0.0334788 99 99 96
0.32 1.56922 -2.56 -0.0676274 -0.997386 0.0254344 99 99 96
0.4 1.56164 -2.64 -0.0756311 -0.996537 0.0345477 95 96 92
0.4 1.56345 -2.56 -0.0804016 -0.996568 0.0196832 95 96 92
0.48 1.55496 -2.64 -0.0827205 -0.996176 0.0281224 97 97 93
0.48 1.55583 -2.56 -0.0887383 -0.996011 0.00935895 97 97 93
0.56 1.54856 -2.64 -0.0732252 -0.997097 0.0208631 93 93 91
0.56 1.54897 -2.56 -0.0758431 -0.99709 0.00772676 93 93 91
0.64 1.54283 -2.64 -0.0688453 -0.997537 0.0134413 92 92 87
0.64 1.54408 -2.56 -0.0609365 -0.998018 0.0156836 92 92 87
0.08 1.58639 -2.72 -0.086352 -0.995969 0.02426 101 101 98
0 1.59286 -2.72 -0.0679692 -0.997079 0.0348304 101 101 98
0.16 1.57959 -2.72 -0.0976032 -0.994667 0.0333352 102 102 97
0.24 1.57091 -2.72 -0.0972468 -0.994482 0.0393511 101 101 98
0.32 1.56356 -2.72 -0.0816069 -0.99569 0.0440557 99 100 95
0.4 1.55791 -2.72 -0.0743365 -0.995891 0.0517176 96 97 91
0.48 1.55152 -2.72 -0.0774674 -0.995847 0.0478341 96 96 93
0.56 1.54523 -2.72 -0.0611736 -0.99733 0.0398901 93 93 90
0.64 1.5415 -2.72 -0.0527702 -0.998176 0.0293244 91 92 86
0.08 1.58517 -2.8 -0.0757095 -0.996348 0.0394704 102 102 98
0 1.58758 -2.8 -0.029063 -0.997731 0.0607222 102 102 98
0.16 1.57621 -2.8 -0.108087 -0.993425 0.0377466 98 99 95
0.24 1.56694 -2.8 -0.0999288 -0.994201 0.0397272 101 102 97
0.32 1.56014 -2.8 -0.0868567 -0.995338 0.0419304 99 99 95
0.4 1.55323 -2.8 -0.078529 -0.995751 0.04809 98 99 94
0.48 1.54705 -2.8 -0.0683134 -0.996695 0.0439589 95 95 91
0.56 1.54197 -2.8 -0.0492338 -0.998349 0.0295844 92 93 89
0.64 1.53913 -2.8 -0.0382322 -0.99909 0.0189089 91 91 87
0.08 1.58087 -2.88 -0.0616153 -0.997165 0.0431837 100 100 96
0 1.58296 -2.88 -0.0262257 -0.998541 0.0472093 100 100 96
0.16 1.5727 -2.88 -0.100479 -0.994526 0.0286692 98 98 94
0.24 1.56454 -2.88 -0.0989769 -0.994968 0.0155727 96 96 92
0.32 1.55707 -2.88 -0.0919884 -0.995599 0.0179129 98 99 94
0.4 1.54971 -2.88 -0.0815197 -0.996353 0.025202 96 97 92
0.48 1.54417 -2.88 -0.057045 -0.998005 0.0270507 94 94 90
0.56 1.54046 -2.88 -0.0340632 -0.999321 0.014032 92 92 89
0.64 1.53892 -2.88 -0.0233628 -0.999713 0.00530965 92 92 87
0.08 1.57791 -2.96 -0.0540014 -0.997859 0.0368958 101 102 98
0 1.58004 -2.96 -0.0257435 -0.998976 0.0372187 101 102 98
0.16 1.57143 -2.96 -0.0841594 -0.996009 0.0297326 96 96 93
0.24 1.56471 -2.96 -0.0865034 -0.996148 0.0143481 98 99 94
0.32 1.55721 -2.96 -0.097282 -0.995256 0.0013778 98 98 95
0.4 1.54937 -2.96 -0.0920127 -0.995694 0.0112502 98 99 95
0.48 1.54261 -2.96 -0.0555566 -0.998211 0.0220969 96 97 91
0.56 1.53993 -2.96 -0.0250373 -0.999566 0.0154954 94 94 89
0.64 1.53892 -2.96 -0.0142332 -0.999808 0.0134318 91 91 86
0.08 1.57501 -3.04 -0.0531308 -0.997852 0.0383219 101 102 98
0 1.57685 -3.04 -0.0367156 -0.998966 0.0268123 101 102 98
0.16 1.56825 -3.04 -0.0771182 -0.996488 0.0326284 97 98 95
0.24 1.56192 -3.04 -0.0703987 -0.99732 0.0199223 101 101 98
0.32 1.55714 -3.04 -0.0886949 -0.996036 0.00676239 97 98 94
0.4 1.54808 -3.04 -0.105347 -0.994424 0.00480716 98 99 94
0.48 1.5401 -3.04 -0.0619996 -0.997884 0.0195601 96 97 92
0.56 1.5383 -3.04 -0.0208658 -0.999421 0.0268841 93 94 89
0.64 1.53704 -3.04 -0.0149647 -0.999513 0.0273965 90 90 85
0.08 1.5717 -3.12 -0.0704236 -0.996804 0.0377161 102 102 97
0 1.57796 -3.12 -0.0824443 -0.996513 0.0128414 102 102 97
0.16 1.56548 -3.12 -0.0610771 -0.997377 0.0388454 103 104 98
0.24 1.5617 -3.12 -0.0594214 -0.998039 0.0196591 98 98 95
0.32 1.55656 -3.12 -0.0791229 -0.996761 0.0143702 98 98 94
0.4 1.54851 -3.12 -0.103627 -0.994616 5.23913e-05 97 97 94
0.48 1.53967 -3.12 -0.0766662 -0.997034 -0.00673873 95 95 91
0.56 1.5359 -3.12 -0.0346842 -0.99937 0.00751511 91 91 87
0.64 1.53441 -3.12 -0.0179498 -0.999499 0.0260622 88 89 85
0.08 1.56779 -3.2 -0.0805769 -0.995767 0.0442284 102 102 98
0 1.5755 -3.2 -0.0959458 -0.994918 0.0305286 102 102 98
0.16 1.56182 -3.2 -0.0531724 -0.997505 0.0464401 103 103 99
0.24 1.55937 -3.2 -0.0507043 -0.998161 0.033209 99 99 96
0.32 1.55436 -3.2 -0.0721382 -0.997006 0.0278571 98 98 95
0.4 1.54786 -3.2 -0.0885767 -0.995985 0.0129643 96 97 92
0.48 1.5409 -3.2 -0.0710474 -0.997427 -0.00956316 94 94 91
0.56 1.53739 -3.2 -0.0516741 -0.998505 -0.0178187 92 93 88
0.64 1.53275 -3.2 -0.0383186 -0.999265 0.0010809 88 89 84
-3.12 -0.675965 -4.56 -0.247627 0.968628 -0.0210029 95 97 96
-3.17843 -0.64 -4.56 0.493066 0.801061 -0.339393 95 97 96
-3.12 -0.64 -4.49911 -0.0562294 0.859641 -0.507794 95 97 96
-3.07328 -0.64 -4.56 -0.608025 0.789907 0.0796987 93 95 94
-2.96 -0.640544 -4.48 -0.0843841 0.898184 0.431445 83 85 84
-2.96 -0.64 -4.48113 -0.059705 0.899791 0.432216 83 85 84
-2.96166 -0.64 -4.48 0.283244 0.864485 0.415257 83 85 84
-2.95875 -0.64 -4.48 -0.365037 0.839197 0.40311 84 86 85
-2.72 -0.661262 -4.48 0.326499 0.800961 0.501857 84 86 85
-2.72 -0.64 -4.51393 0.22438 0.825793 0.517416 84 86 85
-2.74015 -0.64 -4.48 0.666559 0.631696 0.395801 84 86 85
-2.67304 -0.64 -4.48 -0.358233 0.79116 0.495716 57 59 57
-3.12 -0.64 -4.60677 -0.441588 0.711253 0.546918 96 98 97
-3.17053 -0.64 -4.64 -0.546693 0.627055 0.554913 96 98 97
-3.2 -0.667198 -4.64 -0.461224 0.760914 0.45638 96 98 97
-3.2 -0.64 -4.59769 0.5233 0.759923 -0.385584 96 98 97
-2.64 -0.641483 -4.64 0.250911 0.956681 -0.147663 81 83 82
-2.64546 -0.64 -4.64 0.261038 0.953458 -0.150918 81 83 82
-2.64 -0.64 -4.62441 0.184276 0.978455 -0.0930975 81 83 82
-2.56 -0.64 -4.59408 0.296155 0.786862 -0.541424 86 88 85
-2.56 -0.675882 -4.64 0.343578 0.79906 -0.493415 86 88 85
-3.2 -0.64 -4.67236 -0.57702 0.625249 0.525464 93 95 93
-2.64 -0.683006 -4.72 0.367634 0.832942 -0.413586 87 89 86
-2.70136 -0.64 -4.72 0.458341 0.708526 -0.536577 87 89 86
-2.56 -0.708702 -4.72 0.332312 0.863079 -0.380346 79 81 80
-2.72 -0.694819 -4.8 0.353796 0.843828 -0.403463 83 84 84
-2.79939 -0.64 -4.8 0.670283 0.63064 -0.391171 83 84 84
-2.72 -0.64 -4.73366 0.431508 0.695403 -0.574644 83 84 84
-2.64 -0.712089 -4.8 0.336104 0.872986 -0.353454 81 83 82
-2.62049 -0.72 -4.8 0.343364 0.871692 -0.349648 79 81 79
-2.56 -0.72 -4.74486 0.346692 0.856829 -0.38164 79 81 79
-2.56 -0.743554 -4.8 0.304255 0.902757 -0.304072 89 91 89
-2.88 -0.642272 -4.88 0.573939 0.568306 -0.589594 81 83 82
-2.88225 -0.64 -4.88 0.574171 0.56794 -0.589722 81 83 82
-2.88 -0.64 -4.87785 0.570795 0.564525 -0.596242 81 83 82
-2.8 -0.64 -4.80106 0.672707 0.629543 -0.388769 77 79 78
-2.8 -0.688736 -4.88 0.386292 0.817627 -0.426925 77 79 78
-2.72 -0.715844 -4.88 0.396312 0.825189 -0.402492 75 77 76
-2.71168 -0.72 -4.88 0.392838 0.83253 -0.390605 67 69 69
-2.64 -0.72 -4.81937 0.329012 0.880647 -0.3409 67 69 69
-2.64 -0.739531 -4.88 0.194216 0.96342 -0.184667 94 96 94
-2.56 -0.749775 -4.88 0.12699 0.991743 -0.0178712 99 100 97
-2.88 -0.6907 -4.96 0.512644 0.703854 -0.491717 79 81 81
-2.93319 -0.64 -4.96 0.633406 0.66449 -0.396547 79 81 81
-2.82651 -0.72 -4.96 0.264548 0.896994 -0.35414 76 78 77
-2.8 -0.72 -4.93973 0.227628 0.92559 -0.302438 76 78 77
-2.72 -0.72 -4.88854 0.376142 0.841994 -0.386734 72 74 73
-2.8 -0.725289 -4.96 0.17729 0.955483 -0.235842 85 87 86
-2.72 -0.737919 -4.96 0.136349 0.98232 -0.128285 91 92 90
-2.64 -0.746229 -4.96 0.0544948 0.998197 -0.0251444 97 98 96
-2.56 -0.746457 -4.96 0.0340471 0.999419 0.00147962 107 108 103
-2.96 -0.66669 -5.04 0.638599 0.578656 -0.507295 71 73 71
-2.98413 -0.64 -5.04 0.668498 0.573908 -0.473013 71 73 71
-2.96 -0.64 -5.00322 0.653176 0.620215 -0.43439 71 73 71
-2.91427 -0.72 -5.04 0.443707 0.806423 -0.390903 73 75 74
-2.88 -0.72 -4.99789 0.401748 0.821466 -0.404713 73 75 74
-2.88 -0.731388 -5.04 0.231383 0.952802 -0.196543 83 85 84
-2.8 -0.733401 -5.04 0.0468689 0.99586 -0.0778811 77 78 77
-2.72 -0.743899 -5.04 0.0645008 0.99763 0.0239745 93 94 92
-2.64 -0.743348 -5.04 0.020208 0.997613 0.0660357 100 102 99
-2.56 -0.744533 -5.04 0.0117776 0.997488 0.0698428 109 110 105
-2.96 -0.72 -5.08718 0.508304 0.765601 -0.394313 75 76 77
-2.98131 -0.72 -5.12 0.508294 0.798182 -0.32333 75 76 77
-3.02561 -0.64 -5.12 0.796708 0.441161 -0.413078 75 76 77
-2.96 -0.730556 -5.12 0.386751 0.884491 -0.260959 67 68 68
-2.88 -0.721507 -5.12 0.0701252 0.990015 0.122282 66 68 67
-2.8 -0.742725 -5.12 0.0118633 0.998201 -0.058762 74 75 72
-2.72 -0.733516 -5.12 0.000554653 0.997694 0.0678722 92 93 91
-2.64 -0.732977 -5.12 0.0134643 0.991607 0.128586 108 109 104
-2.56 -0.735695 -5.12 0.0242631 0.992571 0.119219 111 112 106
-0.96 1.65248 -2.56 0.207782 -0.958354 -0.195917 145 152 161
-1.00301 1.6 -2.56 0.702193 -0.575478 -0.419227 145 152 161
-1.04 1.6 -2.62196 0.712337 -0.456214 -0.533333 145 152 161
-1.04 1.62357 -2.64 0.592676 -0.710475 -0.379421 145 152 161
-0.96 1.65807 -2.64 0.0718045 -0.997418 -0.000806986 145 152 161
-0.88 1.63485 -2.64 -0.138577 -0.989772 -0.0338727 137 138 137
-0.88 1.63223 -2.56 -0.119434 -0.992395 -0.029795 137 138 137
-0.8 1.63478 -2.64 -0.0349943 -0.999329 -0.0108412 128 128 125
-0.8 1.63301 -2.56 -0.0152648 -0.999844 -0.00892783 128 128 125
-0.72 1.62945 -2.64 -0.0495942 -0.998551 0.0208868 118 118 114
-0.72 1.63188 -2.56 -0.0292928 -0.999167 0.0284161 118 118 114
-0.64 1.62621 -2.64 -0.0424941 -0.998537 0.0334375 112 113 108
-0.64 1.62799 -2.56 -0.048657 -0.998568 0.022232 112 113 108
-0.96 1.64979 -2.72 0.0394129 -0.996547 0.0730824 136 141 146
-1.04 1.63912 -2.72 0.0874204 -0.99387 -0.0676818 136 141 146
-0.88 1.6377 -2.72 -0.108081 -0.993982 0.0178261 134 135 133
-0.8 1.63496 -2.72 -0.0549476 -0.998429 0.0109749 125 126 122
-0.72 1.62792 -2.72 -0.0737164 -0.997092 0.0193245 119 119 116
-0.64 1.62296 -2.72 -0.056512 -0.997881 0.0322536 113 114 108
-0.96 1.63848 -2.8 -0.0200604 -0.995055 0.0972824 144 148 152
-1.04 1.6419 -2.8 -0.0905698 -0.995802 -0.0132735 144 148 152
-0.88 1.63466 -2.8 -0.0490199 -0.996505 0.0676367 133 133 133
-0.8 1.63205 -2.8 -0.0518792 -0.997769 0.0420191 123 123 122
-0.72 1.62618 -2.8 -0.0755563 -0.996609 0.0325986 118 119 113
-0.64 1.62017 -2.8 -0.0715801 -0.996879 0.0333105 113 114 108
-0.96 1.63006 -2.88 -0.0996164 -0.99301 0.0633121 147 150 152
-1.04 1.64903 -2.88 -0.250184 -0.967781 -0.0284194 147 150 152
-0.88 1.6283 -2.88 -0.0111667 -0.997774 0.0657459 135 136 135
-0.8 1.62807 -2.88 -0.0390837 -0.998421 0.0403592 124 125 122
-0.72 1.62293 -2.88 -0.0677255 -0.997006 0.0373032 116 116 112
-0.64 1.61709 -2.88 -0.0733181 -0.996854 0.0301235 112 112 108
-0.96 1.62414 -2.96 -0.134809 -0.988077 0.0743675 148 148 150
-1.04 1.6498 -2.96 -0.319752 -0.94701 0.0305132 148 148 150
-0.88 1.62391 -2.96 0.0147419 -0.99838 0.0549597 133 135 132
-0.8 1.6265 -2.96 -0.0248731 -0.999271 0.0289717 123 124 119
-0.72 1.62008 -2.96 -0.0670333 -0.997538 0.0205879 115 116 110
-0.64 1.61542 -2.96 -0.0618786 -0.997907 0.0188022 111 111 107
-0.96 1.61532 -3.04 -0.140202 -0.987208 0.0759226 146 149 149
-1.04 1.64624 -3.04 -0.357611 -0.932428 0.0518879 146 149 149
-0.88 1.61949 -3.04 0.0452268 -0.997227 0.0590975 132 133 130
-0.8 1.62361 -3.04 -0.00308413 -0.999047 0.0435455 120 121 117
-0.72 1.61931 -3.04 -0.0608365 -0.997642 0.0317803 108 109 105
-0.64 1.61466 -3.04 -0.0580109 -0.997747 0.0336881 113 114 110
-0.96 1.61044 -3.12 -0.137957 -0.987244 0.0794746 143 146 147
-1.04 1.64044 -3.12 -0.127869 -0.989828 0.0623649 143 146 147
-0.88 1.61547 -3.12 0.0616192 -0.995994 0.0648045 132 132 130
-0.8 1.61985 -3.12 0.00182262 -0.998793 0.0490898 121 121 118
-0.72 1.61579 -3.12 -0.0624825 -0.996895 0.047919 115 116 110
-0.64 1.61002 -3.12 -0.0683569 -0.996214 0.0537123 114 115 109
-1.12 1.60968 -3.12 0.323892 -0.94609 0.00291805 147 154 161
-1.04 1.63682 -3.2 -0.0282407 -0.999272 0.0256686 147 154 161
-1.12 1.61238 -3.2 0.292093 -0.955848 -0.0321912 147 154 161
-0.96 1.60232 -3.2 -0.138172 -0.986453 0.0884281 140 144 144
-0.88 1.60858 -3.2 0.0797069 -0.99281 0.0893043 129 129 128
-0.8 1.61579 -3.2 0.0113822 -0.998167 0.0594373 121 121 116
-0.72 1.61182 -3.2 -0.0645164 -0.996677 0.0497232 114 114 110
-0.64 1.60547 -3.2 -0.0754095 -0.995743 0.0529978 111 112 108
-2 1.73395 -3.28 0.0141211 -0.999214 -0.0370287 131 134 126
-1.92 1.73804 -3.36 0.07662 -0.997004 0.0105529 131 134 126
-1.92 1.72502 -3.28 -0.109541 -0.981059 -0.159762 131 134 126
-2 1.7269 -3.36 0.0131679 -0.999912 0.00134502 131 134 126
-2.08 1.74084 -3.36 -0.091928 -0.995745 0.00642419 129 131 123
-2 1.73293 -3.44 -0.0336036 -0.999275 -0.0178784 129 131 123
-2.08 1.73391 -3.44 -0.019326 -0.999496 0.0251841 129 131 123
-1.92 1.7334 -3.44 0.0391009 -0.998897 0.0260021 132 135 128
-2 1.73466 -3.52 -0.0336051 -0.998957 0.030903 131 133 125
-2.08 1.73791 -3.52 -0.089649 -0.994129 -0.0605912 131 133 125
-1.92 1.72853 -3.52 -0.0558609 -0.998398 -0.00902623 130 130 125
-2.16 1.74247 -3.52 0.00155059 -0.997145 -0.0754959 130 133 123
-2.08 1.74865 -3.6 -0.0951021 -0.994246 0.0493039 130 133 123
-2.16 1.74386 -3.6 -0.00759203 -0.998373 0.0565088 130 133 123
-2 1.72387 -3.6 -0.073345 -0.996942 0.0269676 128 131 122
-1.92 1.73156 -3.6 0.0525801 -0.997962 0.0361586 129 131 125
-2.24 1.74513 -3.6 -0.0302324 -0.999405 0.0166292 128 131 120
-2.16 1.74138 -3.68 -0.110367 -0.992793 0.0466953 128 131 120
-2.24 1.74495 -3.68 -0.073828 -0.996366 0.0424756 128 131 120
-2.08 1.72571 -3.68 -0.0542864 -0.990917 0.123031 130 133 122
-2 1.72643 -3.68 -0.0212019 -0.999449 0.0255467 127 129 121
-1.92 1.72962 -3.68 0.0538753 -0.998313 0.0216359 129 130 125
-2.32 1.75484 -3.68 -0.0561873 -0.990722 0.123744 127 130 117
-2.24 1.74031 -3.76 -0.0351692 -0.986598 0.159335 127 130 117
-2.32 1.73938 -3.76 -0.0328766 -0.969484 0.242941 127 130 117
-2.16 1.73512 -3.76 -0.0876896 -0.990768 0.103387 129 132 122
-2.08 1.72198 -3.76 -0.038874 -0.999183 0.0110908 127 129 121
-2 1.72713 -3.76 0.00358533 -0.999185 -0.0401983 125 127 119
-1.92 1.72584 -3.76 -0.00210497 -0.999973 0.00703677 128 130 124
-2.4 1.75127 -3.76 -0.133993 -0.949648 0.28322 125 129 115
-2.32 1.71612 -3.84 -0.041006 -0.958435 0.282348 125 129 115
-2.4 1.72676 -3.84 -0.126146 -0.948504 0.290565 125 129 115
-2.24 1.72009 -3.84 0.0174313 -0.967068 0.253919 127 131 117
-2.16 1.72047 -3.84 -0.00269318 -0.980441 0.196794 127 130 119
-2.08 1.72236 -3.84 0.0501733 -0.997834 0.0425363 127 130 121
-2 1.7362 -3.84 -0.0035723 -0.996271 -0.0861996 127 129 121
-1.92 1.72625 -3.84 -0.069478 -0.995862 -0.05858 129 130 125
0.64 1.56662 -1.92 -0.144975 -0.989381 -0.0103812 88 87 82
0.72 1.55574 -2 -0.0909971 -0.995838 0.00513452 88 87 82
0.72 1.55445 -1.92 -0.083357 -0.996503 -0.00570206 88 87 82
0.64 1.56703 -2 -0.128198 -0.991555 0.0196089 88 87 82
0.8 1.55276 -2 -0.00328708 -0.999759 0.0217016 84 83 78
0.8 1.55474 -1.92 0.0130284 -0.999548 0.0270987 84 83 78
0.88 1.55418 -2 -0.013523 -0.999609 0.0244903 80 79 74
0.88 1.55692 -1.92 0.010366 -0.998357 0.0563546 80 79 74
0.96 1.5501 -2 -0.311372 -0.949924 0.0263112 78 76 70
0.96 1.55997 -1.92 0.0378417 -0.991764 0.122358 78 76 70
0.998246 1.52 -2 -0.943584 -0.309187 0.118544 44 41 33
1.00243 1.44 -1.92 -0.959812 0.224731 0.1681 44 41 33
1.02202 1.52 -1.92 -0.933205 0.22851 0.27733 44 41 33
0.991739 1.44 -2 -0.968849 0.200869 0.144852 44 41 33
0.977453 1.36 -1.92 -0.953826 0.260661 0.149236 64 62 47
0.964357 1.36 -2 -0.954498 0.248247 0.165246 64 62 47
0.96 1.34228 -2 -0.958319 0.233071 0.165237 64 62 48
0.944566 1.28 -2 -0.961448 0.227416 0.154595 64 62 48
0.96 1.28036 -1.92 -0.956376 0.22737 0.183434 64 62 48
0.959915 1.28 -1.92 -0.956361 0.227383 0.183494 64 62 48
0.72 1.55405 -2.08 -0.0792628 -0.996825 0.00750108 86 86 81
0.64 1.56158 -2.08 -0.0852227 -0.995894 0.0305398 86 86 81
0.8 1.55024 -2.08 -0.0134472 -0.999717 0.0196126 84 84 79
