153.63049 42.90941 669.55518
155.80798 43.15927 673.74683
32.48418 41.47494 652.77930
40.30922 40.92803 644.81403
44.26138 40.70092 641.09607
49.44202 40.38393 635.89752
103.24160 37.34367 584.27173
133.40416 40.56706 631.27661
135.86668 40.89204 636.15356
61.10240 40.02323 624.59247
65.23119 39.77837 620.53174
97.89175 37.94802 589.48383
100.52312 37.80636 587.02637
157.39902 43.90546 677.07385
160.02750 44.22122 681.74896
87.51629 38.70847 599.40082
116.48312 38.91885 600.03296
119.60915 39.23613 605.53748
26.65583 42.60931 658.86658
69.75555 39.98251 616.44141
127.60213 40.59561 621.05762
55.86981 40.95259 630.15460
37.50945 42.42173 648.40002
77.06587 40.04204 610.01428
83.38126 39.67198 603.89587
94.56651 39.03056 593.17511
111.46327 38.96844 591.17633
124.04758 40.62777 614.92218
137.11555 42.30779 639.39447
139.57167 42.63033 644.09351
23.66562 43.45831 662.42047
52.23549 41.69451 633.79187
142.11110 43.19825 649.35321
148.11507 43.99492 660.88409
72.68244 40.76142 614.47485
108.86111 39.08450 586.62476
114.12671 39.80714 596.59570
120.51321 40.64142 608.64111
144.29533 43.73834 653.70837
31.00710 43.48729 655.46686
35.24961 43.27994 651.37280
90.35026 39.91903 597.66614
128.69722 41.93254 624.43097
131.02025 42.24066 628.84729
43.00617 43.02401 643.74554
58.69371 42.05618 627.97406
117.32980 40.67027 603.17542
149.75896 44.99740 664.83838
153.39084 45.49784 671.96869
46.71155 43.02145 640.08569
63.86641 41.87572 623.04041
68.00098 41.64043 619.29089
133.49179 43.05342 633.85065
145.95721 44.74635 657.84454
157.49512 46.30032 679.83008
79.95561 41.26086 608.13306
86.21560 40.87469 601.94489
125.23263 42.22463 618.45679
151.35181 45.75813 668.28979
105.78060 39.89135 583.83923
154.95430 46.48451 675.44232
159.45665 47.08421 683.82111
40.24303 44.20726 646.89966
49.40259 43.60840 637.77789
103.01830 40.34406 586.28827
22.82991 45.61687 665.90613
29.23360 45.09766 658.20648
75.50430 42.16368 612.46564
93.15220 41.11563 595.81305
97.33868 40.86929 591.84900
100.20890 40.65039 589.22742
121.29427 42.32521 611.65948
134.68007 44.21908 637.18494
26.27360 45.63157 661.12622
54.98881 43.73466 632.64258
61.70536 43.29789 625.97009
111.90922 41.37309 594.18597
137.23685 44.84032 642.11896
139.75273 45.19909 647.08130
114.64095 41.95278 599.63757
118.19940 42.44551 606.41901
33.57628 45.63214 654.07440
70.79785 43.20296 617.54877
82.79636 42.45580 606.00555
89.06343 42.08442 600.19019
109.31602 41.48018 589.71539
126.04620 43.77939 621.64465
141.94104 45.98927 651.82867
131.10287 44.72540 631.41956
37.63638 45.86021 650.45270
45.73475 45.28642 642.59705
52.18920 44.83458 635.90509
57.69918 44.46502 630.38916
66.76009 43.94547 621.95624
122.46523 43.76511 615.31024
128.92195 44.68658 627.34631
146.39861 47.13477 660.86865
78.42889 43.39256 610.72723
143.48694 46.97738 655.50372
73.71800 43.96868 615.49115
155.16498 48.94802 678.27203
157.00375 49.21345 681.82214
42.91013 46.19896 645.68109
106.87460 42.27032 586.36639
148.07672 48.17122 665.02448
151.59189 48.67510 671.72357
31.82423 47.26221 656.98688
85.66801 43.66813 604.22174
96.09514 43.02099 594.35730
115.50057 43.72799 602.89294
158.97157 50.01876 685.86176
24.87730 47.94352 663.86383
48.59863 46.29590 640.30731
64.50165 45.16476 624.65979
91.79381 43.46223 598.32556
112.42525 43.52359 597.28687
118.77887 44.43425 609.31726
132.00522 46.28685 634.49640
60.60446 45.76442 628.65649
123.64370 45.38191 618.85040
126.68096 45.82692 624.69757
134.84909 47.01226 639.82867
137.34897 47.39130 644.81531
139.82478 47.75422 649.58026
152.87154 49.68125 674.87006
22.41927 48.65706 667.88489
28.84890 48.10418 660.17505
40.57261 47.29726 648.77008
81.29732 44.59223 608.67114
102.51294 43.27214 588.76257
149.32643 49.39824 668.33545
36.37464 47.94242 653.12738
69.44064 45.59925 620.19659
99.60367 43.71524 591.67450
109.56426 43.81733 592.60822
54.90035 46.76900 634.61584
76.55546 45.37133 613.56873
119.86523 45.56866 612.50568
129.00354 47.17847 629.94629
143.94809 49.37846 658.65094
51.23597 47.55167 638.31738
88.45851 45.06679 602.56720
116.36299 45.52031 606.14648
141.15359 49.23307 653.72070
72.23782 46.40100 618.14844
113.27299 45.30183 600.53558
45.63647 48.45204 644.36426
57.67184 47.59964 632.47314
84.19879 45.81223 606.97827
94.67486 45.12308 596.93750
107.51912 44.67727 589.80853
145.60844 50.42704 662.79553
63.35340 47.44733 627.10394
67.36608 47.21206 623.22876
121.02292 46.96623 615.63055
124.32815 47.45251 622.19489
132.45071 48.69102 637.42908
153.20714 51.84671 677.63269
155.04472 52.13107 681.21777
27.55037 50.25739 663.33600
34.38197 49.72858 656.18817
39.03568 49.42319 651.23749
79.87099 46.56142 611.34717
158.39456 52.91686 687.94519
31.45963 50.29134 659.19214
43.09415 49.40358 647.18524
134.97644 49.57227 642.62213
137.44783 49.95873 647.46143
146.86749 51.43565 665.94751
149.89874 51.88520 671.93237
24.76189 50.92152 665.78650
91.28976 46.26029 600.69672
110.21906 45.96724 595.90521
126.80054 48.49663 627.40735
129.84958 48.95675 633.12628
48.52924 49.47446 642.32416
75.18021 47.61987 616.24524
97.89326 46.08175 594.48633
156.36844 53.41194 684.72150
54.21268 49.27821 637.28119
60.54221 48.79523 630.71240
114.12293 47.09689 603.77856
116.99718 47.54905 609.36938
138.92180 50.88434 651.18860
22.41850 51.96224 669.13483
87.14288 47.26756 605.06073
102.10284 46.26149 590.82330
121.81110 48.53826 618.79449
141.60173 51.63790 656.84290
37.08583 51.30972 654.24866
70.36893 48.90631 621.50922
82.84340 48.02408 609.40668
151.01765 53.68266 675.49872
66.20443 49.41428 625.84412
78.01584 48.56634 614.30719
107.85835 46.99933 592.61115
118.70943 48.77752 613.47919
143.15390 52.66550 660.55780
147.54039 53.37861 669.18915
41.86789 51.49953 649.94165
51.48289 50.76507 640.27905
57.03777 50.34127 634.66443
111.09780 47.84364 599.09448
127.40020 50.40294 630.38593
132.55661 51.24419 640.14581
29.89192 52.55372 661.89160
94.14460 47.90320 599.05304
124.45384 50.12350 624.95581
130.21040 51.10394 636.03619
158.43991 55.63293 690.29462
33.97599 52.57389 658.27069
45.85253 51.68480 646.19885
73.27735 49.63791 619.14832
90.00181 48.46705 603.26556
105.30440 47.44223 589.07465
135.10251 52.15398 645.42273
152.80490 55.04048 680.25616
27.34710 53.35618 665.21460
63.32799 50.56392 628.98401
114.76530 49.13562 607.09308
144.46069 53.94079 664.23889
122.43888 50.60681 621.89978
139.46484 53.39419 654.53223
156.21748 56.14919 687.13220
39.88809 52.79677 652.72302
85.66506 49.42322 607.72443
100.56681 48.32540 593.60724
136.22603 53.11166 648.75183
24.80208 54.30079 667.97681
68.83083 50.90894 623.96063
81.00750 50.03148 612.36078
97.00928 48.89058 597.04584
119.58377 50.62163 616.73358
148.31465 55.39234 672.36707
154.08240 56.32261 683.60168
48.72831 52.60821 644.26892
60.04818 51.79613 633.04010
22.02065 55.07961 671.61005
76.23679 50.86018 617.35107
108.22932 49.28187 595.48438
111.68076 49.85380 602.16028
128.01727 52.49996 633.35193
54.37550 52.66689 639.04175
115.90076 50.76921 610.62866
125.06021 52.20430 627.91785
140.72240 54.89024 658.35455
32.50538 54.73697 660.80615
36.58310 54.39628 656.57288
44.31307 53.72448 648.71234
92.86904 50.11065 601.59637
103.57627 49.36269 591.60468
132.60335 53.79531 642.59296
145.27161 55.96366 667.62067
150.51105 56.83589 677.66376
88.54890 50.62789 605.97949
130.27283 53.64743 638.56647
66.07243 52.59727 628.01086
71.81564 52.13129 622.08221
83.90633 51.23271 610.48315
137.17348 55.05878 652.02118
142.27223 55.93895 662.08246
29.98221 55.59276 663.74207
51.37478 53.84596 642.15790
56.95441 53.40413 636.62231
79.07300 51.79710 615.37451
157.16515 58.76189 691.41449
62.73066 53.31336 631.26941
109.31676 50.89031 598.95990
117.05187 52.19788 613.81787
120.25517 52.71870 620.10767
42.38459 55.14079 651.58752
122.50420 53.26635 624.38104
148.34158 57.80465 674.94019
151.53275 58.31239 681.29791
27.49421 56.69235 666.98602
39.51022 55.64891 654.88171
47.32510 55.03944 646.90594
74.74026 52.86533 619.85760
95.70496 51.29984 599.82861
99.92042 50.99586 595.87640
112.53148 51.90679 605.88373
125.65993 54.13494 630.93976
133.51828 55.48547 646.11548
153.93416 59.06913 686.04150
24.64263 57.14748 670.06519
145.88606 57.91305 670.63043
35.29581 56.52027 659.11591
138.26514 56.84631 655.67096
21.37829 57.98281 674.17682
59.78513 54.72891 635.00531
68.78420 53.92810 625.89404
91.43368 52.27483 604.30804
127.80064 55.25434 635.68628
134.95744 56.50043 649.50952
142.92587 57.84224 665.01935
81.78941 53.23697 613.65625
86.81567 52.88634 608.76807
105.88568 51.70535 593.84991
118.17340 53.85037 617.22504
50.19267 55.94506 644.87103
130.38327 56.23220 641.34595
32.60450 57.78233 662.67371
54.07325 55.94418 641.28009
77.69742 54.07878 618.01947
109.89429 52.91779 602.04150
113.64517 53.55075 609.37067
123.08370 55.19070 627.35413
139.53506 58.13617 659.30670
157.40482 61.34407 694.45398
45.12740 56.91512 650.09851
149.16556 60.11533 678.59082
154.58928 61.08057 689.10156
38.06778 57.81066 657.34998
65.39008 55.52677 630.14240
30.26369 58.70227 665.47803
56.89612 56.44309 638.85968
71.78812 55.15422 624.09387
94.26811 53.45430 602.41650
140.66141 59.12671 662.53369
143.60085 59.58401 668.08887
151.68492 61.07161 684.17743
84.69608 54.43493 611.78949
89.67899 54.07060 606.85022
98.31153 53.36588 598.57050
102.49497 53.04542 594.56219
106.95902 53.32466 597.31189
120.07759 55.66885 622.26196
135.69135 58.48392 652.64832
146.04108 60.39734 673.29993
41.89550 58.15448 654.22021
62.41436 56.44856 633.39862
125.44516 56.88890 633.30090
23.83098 60.09228 672.55371
27.11366 59.81343 669.36194
114.75230 55.20442 612.78833
128.19572 57.62877 638.73383
131.36578 58.20607 644.90851
74.71110 55.87247 621.76227
80.55973 55.47325 616.20648
35.40433 59.56562 660.98798
47.91583 58.46881 648.36688
68.41294 56.74888 628.23450
110.68403 54.96472 605.49011
21.24482 61.02457 675.99896
123.44003 57.52753 630.26367
132.83714 59.25463 648.51642
136.92581 60.00744 656.46667
155.01305 63.32351 692.07013
52.73923 58.55185 643.87311
59.62080 57.97565 637.19238
117.66803 56.74780 619.27429
141.40485 61.15076 665.66858
157.10684 64.07291 696.69696
115.83447 56.56252 615.93030
120.60367 57.51419 625.29559
146.64264 62.37484 676.24664
149.36420 62.89546 681.70319
152.10582 63.41407 687.13336
44.58070 59.71843 652.32001
87.46745 56.12057 610.03729
92.56666 55.71289 605.17004
107.50822 55.35144 600.28784
143.68922 62.09504 670.74951
32.92570 60.98740 664.62695
40.63321 60.28505 656.73657
55.99188 58.92297 641.25867
77.72737 57.11919 620.31439
83.48412 56.67226 614.34723
97.02862 55.51473 601.29010
101.41464 55.23565 597.18030
128.81477 59.48462 641.66083
138.18414 61.31409 660.07532
29.95512 61.61300 667.68933
65.15488 58.46992 632.18103
111.54941 56.61256 608.47986
125.80483 59.25121 636.20636
38.11863 61.05458 659.28943
50.81467 59.86356 646.61755
71.16371 58.10256 626.48944
26.41481 62.41176 671.63251
104.83867 55.84703 596.00378
73.83130 58.41751 624.11945
133.56668 61.48919 651.97919
23.90071 63.19507 674.34003
62.26433 59.69822 635.60944
90.36331 57.31641 608.29181
118.22741 58.83676 622.12915
139.13667 62.84376 663.37244
47.35383 61.17434 650.69183
108.30820 57.19168 603.41620
112.51348 57.99780 611.62921
121.23878 59.65516 628.49152
123.51024 60.08991 632.91351
130.54790 61.44334 646.67346
141.43634 63.57489 668.34314
144.41777 64.07920 674.04742
149.74109 65.10932 684.49634
152.55281 65.67396 690.23328
154.90082 66.19383 694.92468
20.77374 63.97704 677.97491
35.51228 62.62760 662.84399
43.17331 61.90259 654.91132
68.18584 59.68615 630.23584
80.45761 58.61624 618.10040
146.77156 64.88538 678.82428
58.84443 60.70845 639.56781
86.25393 58.28234 612.83667
95.45354 57.58806 604.08380
99.90708 57.15744 599.78894
134.79832 62.79531 655.54138
126.49664 61.44859 639.60474
156.26085 67.33171 698.41431
54.57792 61.59491 644.18140
115.66536 59.59506 618.68964
29.09142 64.25806 669.95612
32.50206 63.89537 666.56451
76.61801 59.87729 622.52466
113.66244 59.47607 614.90198
105.29309 58.06479 598.95129
109.12281 58.75768 606.46771
128.30450 62.50938 643.76770
135.98085 64.08648 658.83838
40.55473 63.68822 658.67279
50.03005 62.74495 649.00476
65.07024 61.39239 634.23767
83.39684 59.81445 616.26501
93.27615 58.96783 606.72192
118.87749 60.98945 625.45673
131.22467 63.42635 649.61023
142.15527 65.62314 671.37555
147.45662 66.68805 681.91772
20.12913 65.99163 680.95331
46.12207 63.31069 653.22827
89.14153 59.46253 610.91608
150.16245 67.47626 687.49304
38.32150 64.42484 661.38507
70.94265 61.35464 628.73798
123.87074 62.47113 635.86383
139.23505 65.54774 666.09186
152.67807 68.29041 693.02478
23.43694 66.08112 676.73730
26.26219 65.79485 673.74664
52.72503 63.18501 646.78503
57.49131 62.75491 642.14978
61.77299 62.37323 638.01514
73.62515 61.34322 626.09753
98.28239 59.19512 602.17261
144.49922 66.81435 676.66962
79.42272 61.10558 620.52850
110.16667 60.27022 609.84167
121.01397 62.42144 630.84674
132.42876 64.73392 653.10437
136.89868 65.61678 662.01453
35.16065 65.74757 665.11768
43.47320 64.90568 656.77979
67.96246 62.64811 632.29364
106.12955 59.94392 602.34802
115.97843 61.91703 621.48822
153.73538 69.67633 696.35974
102.24598 59.82150 599.22540
128.95203 64.71841 646.91418
155.64360 70.32761 700.42944
31.66096 66.56874 669.06555
86.35157 61.47515 614.61841
125.96708 64.46329 641.62122
133.61348 66.03970 656.47504
147.83087 68.97529 684.97809
150.56972 69.54503 690.44843
48.85472 65.05887 651.56073
91.81871 61.18163 609.37622
139.88286 67.50587 669.07068
142.19402 68.08877 674.09918
28.87607 67.33916 671.96277
82.38732 62.31068 618.76392
95.94837 61.06350 605.61664
111.25535 61.96468 613.26447
113.39016 62.40023 617.42859
118.92048 63.54274 628.02332
145.26262 68.97248 680.15637
55.61633 64.98482 645.14716
60.35323 64.54329 640.51624
76.48108 62.98608 624.68958
22.12337 68.61906 679.46979
64.39985 64.40456 636.60376
121.62988 64.59332 633.95099
123.90806 65.05968 638.37054
134.76607 67.33686 659.66040
40.88224 66.87195 660.39246
51.74314 65.88590 649.57721
106.95423 61.83270 605.66107
116.86333 63.86613 624.88971
25.92150 68.74052 675.72137
37.96729 67.52189 663.41663
46.07167 66.71897 655.23395
70.72269 64.30944 630.71765
89.25649 62.65627 612.73962
129.62485 66.78940 650.26282
136.98839 68.32719 664.72235
19.98156 69.55101 682.47565
73.43494 64.30412 628.23309
100.72302 61.76159 601.77216
151.30220 71.60598 693.72223
34.33311 68.42831 667.65424
58.51675 65.99387 643.36487
79.27401 64.05785 622.78772
126.63275 66.69125 644.90302
142.93016 70.18050 677.22809
148.30789 71.33685 688.03351
67.21884 65.37854 634.60974
131.12143 67.90861 654.04279
153.09845 72.66340 698.29688
85.36468 63.97910 617.16663
108.03446 63.30116 608.70081
139.99660 70.07619 671.92596
145.75432 71.33112 683.29688
155.15988 73.41534 702.65137
43.64293 68.13354 658.53174
94.59592 63.24221 608.10547
113.71071 64.74092 620.31158
119.18969 65.81852 630.84991
31.58427 69.73787 670.96619
54.50835 67.40811 647.70581
63.11248 66.56283 639.13434
98.76577 63.22058 604.41821
104.07746 62.96426 601.47748
28.73599 70.26537 674.20587
111.01054 64.67695 615.55634
132.27429 69.21886 657.28156
137.66481 70.31274 667.87366
24.73091 70.92902 678.29327
48.82738 68.48367 653.71771
92.17619 64.29705 611.03290
121.68321 67.19637 636.56873
124.03399 67.71796 641.35120
134.49112 69.98777 662.12408
19.57089 71.83178 685.26874
37.08033 69.90950 665.89905
76.30036 65.94597 626.80481
82.15128 65.43169 620.86768
109.02153 64.74611 612.07617
116.90764 66.43417 627.49133
143.51701 72.21173 680.17157
149.01627 73.44913 691.45648
40.49648 69.79933 662.43481
88.27744 65.15366 615.22693
127.26746 68.92216 648.02313
22.42479 71.93102 681.43610
51.72034 68.87705 651.60229
57.37423 68.29157 645.79156
70.11346 67.02467 633.08252
61.07147 68.26931 642.12689
66.18430 67.77172 637.15540
72.87120 67.10519 630.46783
114.60767 66.71754 623.84021
140.41850 72.38913 674.77625
150.78737 74.71066 695.98499
46.42300 69.91486 657.11371
104.83150 64.76369 604.73669
119.49805 68.04343 633.72815
128.75319 70.05515 651.82245
145.82227 73.87196 686.15137
155.17438 75.99039 705.19354
34.43252 71.53625 669.40283
135.44939 71.81961 665.22919
152.58987 75.73932 700.40936
79.01046 67.19077 624.78967
97.32457 65.43898 606.97614
101.59110 65.05090 602.96594
27.44169 72.78872 676.69073
111.33465 67.03094 618.50641
124.72586 69.98264 644.81378
132.38885 71.70374 659.86713
137.71222 72.86221 670.44348
31.42535 72.54311 673.09363
43.31855 71.24719 660.69794
84.96264 67.04762 619.38867
121.77331 69.53646 639.31750
129.95120 71.40549 655.34619
141.30658 73.89828 678.00482
143.91281 74.47767 683.13605
54.38126 70.41906 649.73242
91.18478 66.77596 613.32886
94.88371 66.40966 609.98907
105.83237 66.29984 608.01013
117.25539 68.83720 630.49524
39.73310 72.17404 664.92255
146.48576 75.72382 689.18115
25.10748 74.11730 679.87457
63.74071 69.99088 640.56061
68.81924 69.47746 635.55927
75.62145 68.75911 628.92633
148.45181 76.47031 693.27856
21.23250 74.77200 684.11169
49.17063 71.65642 655.38837
59.83572 70.60550 644.65533
81.79355 68.31643 622.93732
108.79479 67.62431 614.33502
155.40396 78.43695 708.53571
37.26194 73.31293 667.70642
87.70231 68.09165 617.40051
114.65358 69.30054 626.49146
126.46159 71.97716 649.59167
57.29256 71.40506 647.76978
72.42000 69.78879 632.82343
100.25192 67.09323 605.56042
106.88159 67.71224 611.19458
112.17216 68.98859 621.77374
119.55877 70.66988 636.42401
133.26933 73.68500 663.18341
135.45598 74.28583 667.88397
152.64732 78.34197 703.17865
46.36272 72.87573 659.01532
52.14192 72.26740 653.26660
138.18973 75.21787 673.59528
149.94534 78.00011 697.74854
30.28063 74.85196 675.62732
122.32922 71.73286 642.12421
19.39300 76.37712 686.92291
34.06984 74.71438 671.63934
66.79746 71.17100 638.36658
78.47707 69.99528 627.05511
127.58704 73.30194 652.81512
141.39537 76.51395 680.76074
144.06532 77.14268 686.17542
42.53382 73.94176 663.27362
117.57669 71.24567 633.36237
130.04614 74.13150 658.16034
28.00410 75.92336 678.21875
93.91017 68.89792 612.31604
124.21465 73.06687 646.99042
23.95687 76.53206 682.56677
62.52305 72.33595 643.13727
84.56895 70.07865 621.58673
90.58490 69.48275 615.80316
97.48031 68.71632 608.96417
103.48524 68.51020 606.01300
139.45932 76.88210 677.51135
109.22074 70.12827 617.63129
145.92201 78.74331 691.00464
153.10210 80.52206 706.38391
40.05836 75.36825 666.81055
54.77663 73.69662 651.41425
114.91997 71.66952 629.09369
135.81081 76.51396 670.71619
49.12585 74.62518 657.35138
71.13781 72.25615 635.32245
75.00378 71.78677 631.31000
112.45889 71.35912 624.52087
119.88483 73.10493 639.29730
147.52063 79.70386 695.07544
36.84242 76.20187 669.96539
45.31047 75.20185 661.47467
60.03392 73.65592 646.60620
65.42610 73.01289 641.24841
81.40018 71.38152 625.26758
130.67029 75.93970 661.22620
133.11610 76.51096 666.03387
150.02475 80.61989 700.65125
154.72554 81.74662 710.12756
32.73876 76.96651 674.22406
87.56142 71.04053 619.45624
104.60867 70.05619 609.40924
106.66325 70.53258 613.42175
127.83454 75.50718 655.54657
141.85797 78.90363 683.83972
22.08200 78.37947 685.69202
52.00805 75.32081 655.31989
57.69436 74.67513 649.42542
100.33746 70.17935 607.25610
121.75640 74.61401 644.08881
124.85344 75.34602 650.19812
137.19122 78.31643 674.98956
18.41644 79.40594 689.72150
26.57826 78.41949 681.00067
30.85148 77.99142 677.17834
109.98376 71.99335 620.82465
117.63981 73.89137 636.10626
69.11481 73.94994 638.02728
77.86876 73.01808 629.40631
143.29128 80.42981 688.20203
42.86475 77.12905 665.09399
93.15132 71.62769 614.60834
96.55308 71.23633 611.50592
139.25974 79.61072 680.08051
150.73810 82.55236 703.88452
115.25912 74.10508 632.10632
147.60107 82.07041 697.79156
35.53094 78.46449 672.62207
48.10435 76.98341 660.06500
62.72287 75.37743 645.00159
73.95741 74.08393 633.81464
84.24088 73.00347 623.81995
24.77529 80.04927 683.92456
90.51276 72.67667 617.67603
112.50852 73.97403 627.24084
122.65823 76.43314 647.13513
128.25595 77.82050 658.52240
133.54073 79.10162 669.26862
144.58815 81.88808 691.87939
152.09207 83.78873 707.46240
39.51532 78.47837 669.01727
54.76609 76.72787 653.47937
125.45003 77.30650 653.12128
130.73900 78.69280 663.92981
134.94327 79.74132 672.49567
21.11696 80.96727 687.96631
80.85950 74.19193 627.41742
106.67941 73.09118 616.00415
119.36277 76.17380 641.43335
29.49673 80.27335 679.78180
45.64217 78.37311 663.17426
51.01355 77.75673 657.73187
67.47079 75.85500 640.77997
110.25557 74.22504 623.69220
141.20699 81.86697 685.74323
153.35521 84.97964 711.00745
33.31534 80.10787 675.77863
60.28691 76.97826 648.30188
71.94504 75.64765 636.77460
86.98034 74.02192 621.65149
99.29137 72.74526 609.86847
104.27015 72.97525 611.68921
136.96143 81.08730 677.16742
145.47359 83.26643 695.04303
148.34227 84.02575 701.19666
76.73737 75.35293 632.01611
18.05569 82.55627 692.50031
57.72570 77.80816 651.41101
117.38995 76.74245 638.44678
65.69978 77.05895 643.67816
107.65753 74.59960 619.36084
115.58340 76.55242 635.04248
138.95850 82.43256 682.21332
27.69785 81.87286 682.39972
42.28581 80.05474 667.21356
95.85218 74.07669 613.79010
113.07815 76.19143 630.29120
120.28914 78.01841 644.65948
122.89139 78.63849 649.87317
126.05589 79.43421 656.23792
128.51508 80.06872 661.31793
131.40709 80.79799 666.90503
142.31081 83.62459 689.76160
24.10600 82.47510 686.40619
38.22275 80.76271 671.79352
149.41653 85.78049 704.93518
53.82574 79.28603 655.93903
83.90249 75.87712 625.91248
93.11377 74.84500 616.64642
146.23190 85.23737 698.56281
70.41943 77.52239 639.43439
79.56544 76.47601 630.17572
89.89084 75.41392 620.05670
20.50231 83.79755 690.18170
32.15548 82.35462 678.44049
48.49852 80.41235 661.49139
62.99571 78.71295 646.80994
74.85069 77.35154 634.89563
134.68127 82.74369 674.78937
150.65669 86.97289 708.01624
153.41675 87.66023 713.43268
36.13763 82.14556 674.57080
132.24464 82.32647 670.06183
45.37987 81.33112 665.17291
104.29636 75.55150 614.36542
109.97768 77.01601 625.90137
123.89246 80.55102 653.43823
136.67529 83.85505 679.64270
142.93739 85.51652 692.69720
98.68959 75.43711 612.06354
101.96072 75.21152 609.92975
108.20056 76.79508 622.35999
139.91168 85.01141 686.75452
40.84151 82.40355 670.10284
51.39733 81.08646 659.35529
56.72347 80.48980 654.25037
68.19888 79.14058 642.28607
86.83631 77.01392 623.72986
117.40321 79.40152 640.95703
128.91156 82.40453 664.18896
146.94984 87.20026 701.88770
17.55169 85.54560 694.58093
26.74635 84.37038 684.86926
30.35516 83.85769 681.19873
60.22980 80.21329 650.45135
120.55141 80.40941 647.48828
82.41259 78.01775 628.47107
113.15018 78.86659 633.16083
125.87278 82.17645 658.63580
143.95151 86.98796 696.03650
151.29475 88.90607 710.91461
23.39000 85.30352 688.42914
73.24472 79.27213 637.69104
77.83658 78.75217 633.19031
105.36714 77.04218 617.72314
115.07008 79.62601 637.24872
138.00241 85.54707 683.58722
65.86835 80.41548 645.45685
110.83555 78.81857 628.94263
34.80516 84.42927 677.09680
43.85677 83.27715 668.12305
92.49965 77.58520 618.99176
95.65382 77.21396 615.74701
140.57262 86.93050 689.89594
38.77884 84.23576 673.44366
118.35884 81.28949 644.39465
121.43787 82.09718 650.60248
129.87167 84.33920 668.06519
132.28743 84.94785 672.72290
134.48044 85.55201 677.14337
148.14702 89.30875 706.01746
153.15846 90.59048 716.00745
20.30294 86.70607 692.21515
48.12431 83.31181 663.76575
54.17401 82.48638 657.48212
89.75718 78.40347 622.11212
144.85661 88.60155 699.29858
63.20433 81.80264 648.75421
71.03386 80.82105 640.84821
85.38410 79.17259 626.43121
80.67524 79.87560 631.39185
102.21326 77.71069 612.45990
123.59037 83.39823 655.80042
126.45297 84.26189 661.88458
29.43679 86.48102 683.66888
33.04786 86.07409 679.97034
50.93506 83.82886 661.59961
59.32908 82.79414 653.03210
76.09451 80.71787 635.98932
135.82349 87.08753 681.27246
98.59117 78.39435 614.08698
105.92060 79.26176 620.84161
107.65089 79.79060 624.34662
141.26819 88.88575 693.20520
26.10101 87.43004 687.27417
138.14011 88.27716 686.68195
146.01605 90.50375 703.30139
151.02272 91.82676 713.44177
41.64418 85.65084 671.47717
57.13271 83.82827 655.97675
68.59277 82.30372 643.95490
112.84797 81.69660 635.26074
115.06130 82.28271 639.67273
127.63057 85.69627 665.37476
148.83817 91.54988 709.40295
17.66822 89.14421 696.50568
23.03889 88.42355 690.78296
37.45950 86.52712 675.98224
46.46419 85.40856 666.54962
103.04870 79.36811 615.74518
110.80880 81.43600 631.30023
118.62577 83.54439 647.39758
142.58148 90.15172 696.78748
83.86587 81.10336 629.35034
88.30994 80.55302 624.72192
121.39198 84.55329 653.16858
152.96776 93.31967 718.74194
65.90022 83.51652 647.13879
73.99683 82.56548 639.26801
95.19311 80.02606 617.98920
124.27811 85.62804 659.40704
130.00003 87.19956 671.13287
132.11133 87.77648 675.21783
78.91825 82.14314 634.17780
108.44926 81.50223 627.37341
116.13615 83.65576 642.91711
20.31731 89.79800 694.02356
53.70604 85.56860 659.93768
62.04276 84.50646 651.32709
92.15030 80.80686 621.05011
133.55101 88.74412 678.93536
138.82277 90.23086 689.96680
44.45112 86.88213 669.49585
50.09382 86.27229 664.01392
135.84862 89.68883 684.08582
146.71817 92.75794 706.78204
28.85838 89.32043 685.89307
31.88223 88.86080 682.66351
35.47028 88.42516 678.84045
40.29818 87.76783 674.01001
143.23131 92.10262 699.86078
71.47928 84.09962 642.51831
103.77816 81.27155 618.89520
151.02486 94.44948 715.85583
86.61790 82.48847 627.35510
122.05275 86.68155 656.26074
125.25878 87.58015 662.86438
148.91920 94.26858 711.96741
25.74202 90.42969 689.60999
59.68341 85.98313 654.48914
76.98233 83.93598 637.32062
81.74432 83.24427 632.24915
98.05137 81.38065 616.21783
105.33523 82.23460 622.63733
118.96954 86.09612 650.44257
127.75006 88.55334 668.42889
140.34077 92.09303 694.82159
56.62090 86.75983 658.17462
112.60542 84.59293 637.71942
16.96933 92.18391 699.23615
64.94073 85.85893 649.62598
68.81537 85.38882 645.83746
136.49612 91.62782 687.23810
23.10856 91.70091 692.61444
43.13804 89.03526 672.29047
48.41889 88.34303 666.49860
90.73347 82.98109 623.78094
108.41967 83.98491 629.90961
110.31822 84.53727 633.68158
116.50443 86.21881 646.13342
144.27068 94.15917 703.77032
38.54906 89.79620 676.87744
129.82014 90.29099 673.91113
151.84558 96.54810 719.63599
19.70411 92.74252 696.68848
52.95970 88.32098 662.46930
94.80132 83.01099 620.22083
101.49996 82.56355 616.28339
113.67464 85.98146 640.99982
133.30980 91.56853 681.14099
146.80583 95.47998 709.38989
34.56387 90.97314 681.55219
84.74364 84.39971 630.23822
106.13275 84.14053 626.03711
119.79853 87.87832 653.44379
122.55144 88.73882 659.15967
131.26582 91.20244 677.39032
138.25453 93.24319 692.08197
28.64634 92.07784 688.09741
31.32752 91.74587 685.18176
46.68142 89.69541 669.36719
74.22865 86.09090 641.03656
80.08403 85.36134 635.20038
125.54888 89.91740 665.90063
62.65260 87.83266 653.26514
140.75859 94.65028 698.04443
41.66592 90.91584 674.97058
127.83971 91.15646 671.05396
134.19249 93.01611 684.54626
148.69153 97.24911 714.74658
59.14741 88.75256 656.71124
89.09895 84.96832 626.72864
37.49442 91.99916 679.45496
51.26163 90.16606 665.40186
55.87122 89.48217 660.48322
67.63106 87.91119 648.24738
71.32884 87.47783 644.50201
102.58028 84.43257 619.94293
142.05290 95.93937 701.56311
144.67984 96.66330 706.68884
25.81994 93.70864 691.43829
97.77554 84.32941 618.40356
116.86237 88.79766 649.30023
123.15240 90.62918 662.28455
22.37581 94.50793 694.97473
77.29387 87.25970 639.04083
83.09235 86.50599 633.10297
93.37333 85.17165 622.78906
110.30984 87.21404 636.18457
120.15858 90.06486 656.36517
135.95821 94.71538 689.26270
138.62982 95.51236 694.89868
65.32752 89.01582 651.24030
103.84484 85.59419 623.33521
114.06640 88.57779 644.40234
146.78078 98.15923 711.89282
44.94603 92.07064 672.43750
107.89127 87.06481 632.09253
33.99336 93.72792 683.97913
49.45646 91.69833 668.09100
106.14104 86.81001 628.67065
130.99315 94.09576 679.77728
87.29143 87.01038 629.68915
111.34650 88.59999 639.35748
125.34193 92.72865 668.27484
128.13860 93.53385 674.10321
30.87434 94.76038 687.37402
40.29535 93.45968 677.65710
53.95860 91.58226 663.49432
117.67975 90.58766 652.28040
62.02079 90.84891 655.70154
74.19041 89.17281 643.18622
80.04428 88.39141 637.13977
120.94931 91.94189 659.57666
142.34422 98.38489 704.38672
58.68296 91.40285 658.98578
70.60859 89.91808 647.08160
91.72626 87.14220 625.55249
96.38541 86.51024 621.10498
136.27020 96.82552 692.26746
139.72078 97.82223 699.16077
28.56189 95.96028 690.26764
36.83330 94.78891 681.96613
131.92468 95.83687 683.18939
133.67375 96.37595 686.92157
144.34457 99.56874 708.98163
147.30370 100.52296 715.59424
25.10620 96.60464 693.50885
43.12297 94.16801 675.50244
47.70740 93.53249 670.76575
123.20525 93.46159 665.05322
68.14667 91.05873 649.97113
100.37068 86.97440 618.41998
114.39212 91.14642 647.43939
52.26953 93.45883 666.52991
64.89626 91.65725 653.55792
111.81420 90.63835 642.31018
125.91335 94.88816 671.50793
128.70682 95.60953 676.91064
56.82825 93.15667 662.09723
77.11732 90.39108 641.26428
82.92091 89.58803 635.15125
85.37961 89.25130 632.57666
103.56210 88.44208 625.62726
137.28824 98.70379 695.78650
90.08057 88.81491 628.24066
107.59483 89.93835 634.30286
118.04648 93.05714 655.62097
33.38924 96.92094 686.18610
39.52405 96.07693 680.02374
94.74416 88.53834 623.50250
101.58366 88.37204 622.01154
145.08577 101.64848 712.50085
45.94251 95.37800 673.43237
105.57400 89.86716 630.64807
61.29017 93.57497 657.96759
73.36557 91.89786 645.46783
108.91000 91.15228 637.80469
115.28211 93.07418 650.62756
120.70921 94.71808 661.78510
129.37946 97.43160 680.40063
134.11868 98.89140 690.11511
139.79507 100.62150 702.00055
31.25023 97.93858 688.96222
50.55743 95.33765 669.48322
123.50680 95.75332 667.80029
141.66714 101.41362 706.06122
27.84882 98.77220 692.58655
36.28466 97.65775 684.20483
42.37809 96.80895 678.05756
55.11671 94.97205 664.66840
79.86253 91.50001 639.21338
88.36132 90.64643 630.97406
125.92909 97.24765 674.12189
131.38916 98.86761 685.47748
70.90691 93.31731 648.88995
97.86041 89.65933 621.68774
112.16928 93.24305 645.56018
135.00888 100.38981 693.54401
137.59998 101.17300 698.78687
64.18275 94.38301 655.84467
67.37849 93.96737 652.25885
92.86064 90.55191 626.72137
142.62671 103.02415 709.43658
59.32400 95.38458 660.86401
76.16667 93.04236 643.63086
118.46386 95.74823 659.13257
121.27013 96.61925 664.75238
48.81285 97.20021 672.22986
103.26640 91.30261 627.86694
115.79368 95.18312 653.74817
127.03547 98.71144 677.25854
39.16539 98.88725 682.19464
45.21186 98.01652 675.97424
53.09780 96.78942 667.50360
82.77424 92.72113 637.40942
85.23505 92.36247 634.75739
109.52577 93.54442 641.26172
123.88949 98.02328 670.84625
101.29105 91.22357 624.27887
112.95428 94.88489 648.59247
30.63385 100.68129 691.31824
33.98652 100.19735 687.90509
105.28888 92.76135 632.95520
131.72244 101.13471 688.18542
79.00869 93.96632 641.64886
129.15262 100.57973 683.01996
135.33385 102.60881 696.41119
139.13535 103.65903 703.75574
57.65743 97.25945 663.79156
73.60694 95.02941 647.36725
91.03143 92.58421 629.44043
95.61696 91.94131 624.92487
42.24250 99.71946 680.06580
62.32554 96.87180 659.24567
106.62850 94.02467 636.68341
119.02457 97.81518 662.02344
140.35811 104.70303 707.21967
51.70784 98.75066 670.56964
70.21649 96.02911 651.12671
121.53261 98.99844 667.73053
36.82666 101.13610 685.94550
66.71338 96.75330 654.90820
88.00813 93.66259 633.00433
113.54645 97.02808 651.48755
116.21117 97.88972 657.31171
124.22881 100.48113 674.20349
127.12711 101.39655 679.98541
132.68999 103.21945 692.03778
136.24425 104.38744 699.64539
48.04136 100.07021 674.94757
55.99321 98.80127 666.54395
109.88159 96.17228 644.57587
60.72439 98.51765 661.93982
76.40965 96.16057 645.44977
81.89428 95.42057 640.09235
98.43680 93.13505 623.16742
103.03584 94.24644 630.52875
129.45103 102.76740 685.81085
45.10334 100.96540 678.25348
94.00147 93.97921 627.89716
39.76424 102.12247 683.69025
85.06978 95.47513 636.80402
101.02641 94.12462 626.74091
65.07603 98.59330 657.62457
107.16954 96.37351 639.75739
110.90631 97.60171 647.67834
119.04604 100.50755 664.81299
121.91720 101.45799 670.73944
133.31165 105.23240 695.15552
138.19279 106.82528 705.22284
35.28037 103.51415 688.90222
69.47172 98.51148 653.60583
72.87331 97.96091 649.73645
90.83418 95.42676 631.60968
124.87759 102.66423 677.51984
130.42586 104.60421 689.50397
50.92863 101.57909 672.99799
54.25518 101.01613 669.42279
79.31189 97.32865 643.26447
103.88296 96.16975 633.73206
113.77018 99.36442 654.38141
116.51801 100.26254 659.93335
42.57481 103.05761 681.77655
58.77116 100.51241 664.74432
96.95293 95.09790 625.84338
127.15816 104.09074 682.99072
135.94522 107.31030 701.70844
63.41488 100.43282 660.25525
88.05537 96.84613 635.02832
107.69233 98.25469 642.75983
134.21213 107.02182 698.38422
37.94786 104.58250 686.69055
47.78233 103.16775 677.05145
75.77809 98.91624 647.95813
104.89097 97.60365 636.92212
111.48270 99.75019 650.53314
119.62183 102.46143 667.90533
67.83748 100.34007 656.21100
122.58328 103.76279 674.57867
57.03985 102.22674 667.53619
84.04165 98.22710 639.50452
100.99866 96.82867 629.27417
131.12679 106.92833 692.79858
45.42515 104.25710 679.67456
93.70062 97.02781 630.11597
127.78558 106.11375 686.23553
114.13567 101.79496 657.37506
116.70967 102.60085 662.60339
124.95263 105.46078 680.56091
40.77961 105.52512 684.82343
61.59993 102.32126 663.62567
72.02834 100.68058 652.37476
78.61005 99.79120 645.69006
108.84614 100.29535 646.65527
53.50059 103.87551 672.00610
82.05502 99.58339 642.31012
131.96732 108.44348 696.04297
50.55182 104.59869 675.20660
66.18236 102.17211 658.76056
90.92753 98.43782 633.43182
105.35434 99.70437 640.01044
120.15984 104.55807 670.67999
87.09870 99.38395 637.60913
96.46968 98.01531 628.05975
111.70296 102.10132 653.44836
128.71349 107.93840 689.72607
101.52084 98.84847 632.20471
122.87599 106.12452 677.34393
133.57587 109.90252 700.31464
43.72080 106.53806 682.82739
74.95311 101.70452 650.29675
117.28519 104.56996 665.74640
70.45181 102.58125 655.39453
125.59602 107.67803 683.85773
48.09811 106.37575 678.71002
56.58561 105.08121 669.78790
59.72669 104.60049 666.56885
64.29101 103.80527 661.53455
114.31526 104.12977 660.01770
102.50849 100.28788 635.34052
106.49570 101.75218 643.91431
109.52389 102.82460 650.51672
77.72961 102.30104 648.06146
129.30191 109.95597 692.74945
84.95071 101.44431 641.07635
93.75014 100.19370 631.99866
120.60100 107.21863 674.46082
53.19884 106.69411 674.17834
81.00722 102.38082 645.06989
89.86151 100.99009 635.86554
99.20653 100.09935 629.47662
112.04803 104.53183 656.36938
117.83025 106.52547 668.71179
126.53461 109.58707 687.23920
68.80750 104.41866 657.92926
123.23817 108.73087 680.63965
131.32573 111.49682 697.89728
62.47314 105.77081 664.51227
73.11341 104.08215 653.54230
107.29798 103.47657 647.20526
114.84753 106.07150 662.96460
46.55278 108.53033 681.30255
50.99905 107.81251 677.10413
102.97326 102.47644 638.25397
87.73251 102.65125 639.06146
104.21294 103.24380 641.48340
56.00476 107.89594 672.23932
59.13838 107.36111 668.75220
66.93785 106.13631 660.43579
100.01588 102.03437 632.56506
109.83646 105.49658 653.63135
118.43578 108.55021 672.01843
121.24767 109.50883 677.62115
127.14216 111.63242 690.41449
76.00095 104.97966 651.43201
115.64069 107.79839 666.00372
123.85514 110.77959 683.91663
71.48921 105.92937 656.11633
83.84147 104.03018 643.50568
96.42583 102.12806 630.51019
129.13036 112.99281 695.52893
49.43221 109.80164 679.72260
92.54746 102.85646 634.55115
112.23490 107.04025 658.95441
79.93410 105.18128 647.71405
107.88827 105.95066 650.59503
65.22308 107.76095 663.28741
105.00526 105.11226 644.59827
54.11556 109.90887 675.27722
100.74041 103.96918 635.96417
124.76826 112.63090 687.42926
61.97649 108.77504 667.15472
90.60409 104.21843 637.29889
116.22569 109.81503 669.24261
69.71078 107.87865 658.99945
86.74576 105.20606 641.52484
112.77148 108.85689 662.11792
118.76866 111.03479 674.84375
121.64079 112.11163 681.36981
74.44449 107.37685 654.40613
58.70229 110.26397 671.15204
105.78794 106.90843 647.58789
109.79833 108.32362 656.09515
126.85228 114.61049 693.11169
52.07699 111.45484 677.93829
78.56406 107.16308 650.35388
95.35497 104.58876 632.97845
102.16902 105.88905 640.37073
82.81119 106.86871 646.35449
68.00002 109.49226 661.74115
113.58611 110.62642 665.33539
119.54210 112.70786 677.92474
122.61197 114.25757 684.95209
56.91305 111.90443 673.91382
64.76774 110.50179 665.52747
72.81697 109.23360 656.94482
107.60635 109.00905 653.05548
116.53536 112.22184 672.19269
89.54806 106.83286 639.88324
93.28273 106.28786 636.31195
110.31460 110.28138 659.04968
124.48821 115.56892 689.64056
77.18809 109.11257 653.02344
85.60681 107.70264 643.97595
98.62219 106.14673 634.05780
102.95187 107.76775 643.47620
61.50143 111.96897 669.34583
99.86858 107.30724 637.65906
114.14526 112.64042 668.47589
54.76388 113.67312 676.87427
81.27667 109.23254 649.13922
105.41418 109.66617 649.91217
70.76647 111.21616 660.18628
111.12852 112.06490 662.32458
119.92299 115.38857 681.43146
117.14550 114.63204 675.65039
59.74691 113.65081 672.31506
67.57705 112.26996 664.18207
107.85510 111.32855 655.72729
75.65143 111.26308 655.60321
88.49442 109.13506 642.35590
103.48312 110.08353 646.81696
84.54306 110.03700 646.56207
121.90303 117.33115 686.76318
64.32152 113.72632 667.89081
92.12103 109.12151 638.99982
95.77512 108.49126 635.00360
100.39077 109.46931 640.42371
111.90089 113.81673 665.33978
79.77275 111.31898 652.05774
57.60394 115.40141 675.14227
73.56571 112.69342 658.42230
105.67780 112.06458 652.47528
114.49200 115.44092 671.76721
117.70012 116.66786 678.71313
108.69828 113.49631 659.36969
101.42470 111.02571 643.88733
119.93817 118.11549 683.91565
62.56848 115.38789 670.69885
70.32937 113.95348 662.37292
87.25231 111.47468 644.77014
112.48130 115.87699 668.65143
82.61283 112.51672 649.95575
97.97409 110.54333 637.34717
67.12103 115.45758 666.31720
103.48523 112.97025 649.62317
109.51725 115.31139 662.72467
78.20057 113.70769 654.79236
90.99184 111.60953 641.31812
114.75662 117.68839 674.63440
60.45596 117.16945 673.67889
105.85069 114.45940 655.24890
94.58604 111.49925 638.09119
117.68121 119.30247 681.23328
85.29301 113.41965 647.83453
101.56959 113.37794 646.56207
65.38491 117.12740 669.13269
73.11013 115.69414 660.93152
75.91114 115.30968 658.10876
110.30344 117.10211 665.86688
81.12743 114.70559 652.71875
98.50617 112.74066 640.22931
115.54298 119.48180 677.65393
70.08855 116.77232 664.46661
106.63274 116.25014 658.45862
112.49323 118.51644 671.36920
103.77682 115.42197 652.41028
89.74185 113.86832 643.84955
99.42371 114.00222 643.44025
63.29368 118.92169 672.15735
68.41114 118.57764 667.35193
84.21879 115.79144 650.43921
93.38573 114.19575 640.76935
107.44155 118.07969 661.81506
78.66537 117.03548 656.65131
88.03643 115.65400 646.68494
101.59353 116.31450 649.55658
110.31073 119.79931 668.36432
113.07587 120.95699 674.79663
115.53043 121.98064 680.36371
104.23253 117.64997 655.49878
72.70532 118.92914 663.32233
75.30872 118.44795 660.47455
66.03474 120.34790 670.45593
108.26288 119.93260 665.22772
81.35963 117.90224 654.31842
99.41489 116.61950 645.87415
96.56760 115.76003 640.11322
92.09242 116.56530 643.61145
105.01939 119.47234 658.78809
70.97816 120.57381 665.91809
110.85423 122.15010 671.83081
113.33451 123.23909 677.67871
101.87341 118.77716 652.31909
86.75407 118.22967 649.65399
68.91158 121.87190 668.89478
78.05066 120.13794 658.81146
84.20041 119.01333 652.39667
90.14098 118.51154 646.55457
97.07246 117.96484 642.87457
99.54211 118.99303 648.48737
105.51269 121.48830 661.73810
108.23581 122.60898 667.55658
75.04156 121.52048 662.73553
80.93069 120.42162 656.77234
102.63764 120.87385 655.89960
111.08456 124.40760 674.57751
106.03545 123.55199 664.86859
71.64866 123.80704 667.30963
93.03570 119.93015 644.89697
103.41191 122.70863 659.15973
108.72726 124.92658 670.76221
77.84775 122.98436 660.97339
83.57734 121.88110 654.82037
86.81846 121.32699 651.43805
97.26340 120.42635 645.95953
99.80228 121.45108 651.17090
89.29065 121.09238 648.85205
74.35800 124.41667 665.09583
80.50497 123.57440 658.70160
103.91929 124.76647 662.24335
100.55639 123.56384 654.75531
106.28329 126.04121 667.43494
92.21957 122.53953 647.33392
97.49944 122.86375 648.52673
77.13860 125.81976 663.01105
86.19865 124.19086 653.80450
83.41072 124.85544 656.79071
88.89870 124.15116 650.98761
95.10120 123.17086 645.21655
101.08272 125.65724 658.03149
106.81609 128.14877 670.63824
98.21296 124.59263 651.74518
103.87591 127.44727 664.53625
80.06057 126.60249 661.04352
75.67685 127.74664 665.60083
101.82100 127.48522 661.11316
91.82611 125.58116 649.37207
98.96227 126.79355 655.15417
104.58544 129.18040 667.56000
82.94508 127.77857 658.87762
85.98907 127.28404 656.10742
95.52600 125.91243 648.29968
78.88541 128.87750 663.55518
88.57462 127.03347 653.22314
96.59441 127.83011 651.73627
99.53864 129.17009 658.41064
101.77859 130.18185 663.44745
81.59337 130.00320 661.54523
91.29017 128.72346 651.70923
85.40876 130.43968 658.35809
87.94341 130.21045 655.90997
97.14687 130.29814 655.68457
99.42965 131.89168 661.08972
94.29348 130.54713 650.98608
84.01743 132.53481 660.85602
90.66708 131.59322 653.93341
97.07903 133.26762 658.26489
87.36691 133.37265 658.14307
95.03539 132.92041 654.24835
90.22873 134.47180 656.20422
94.39062 135.77281 656.25787
91.59538 134.99844 659.51416
94.76472 134.13881 661.05377
89.18961 133.22871 661.44055
100.08336 133.66481 664.32422
92.24349 132.15265 663.05255
96.62356 132.50822 663.58405
86.18136 131.20035 663.45801
89.53843 130.64809 664.83936
82.94382 129.71597 664.92218
94.32339 130.71965 665.68372
98.00784 130.47887 666.56934
86.06519 128.78136 666.89691
80.28534 128.05217 666.74738
89.75241 128.55309 667.70111
100.83260 129.33008 668.60156
93.43662 128.32150 668.52954
83.19073 127.11917 668.52985
74.25142 126.00308 668.46442
97.08601 128.07349 669.44623
77.73315 126.07037 668.98364
86.64063 126.51334 669.92926
90.58952 126.61063 670.61768
99.90633 127.16505 671.36908
81.00085 125.22047 670.58270
94.14424 126.33459 671.67694
110.09407 127.74766 672.76605
72.18673 124.06900 670.80005
103.40649 126.87534 672.21741
75.71851 123.79921 671.77411
83.95096 124.49750 672.36743
87.49799 124.59318 672.79370
97.08456 125.13227 673.52496
106.78106 126.05377 673.69641
68.13188 122.31114 672.57764
79.06586 123.27477 672.99792
91.13989 124.35992 673.63312
100.68127 124.87116 674.51385
71.56186 121.77941 673.63385
82.00134 122.38519 674.80322
94.00690 123.42858 675.45013
104.03999 124.34531 675.85358
75.16302 121.54666 674.42566
85.47923 122.34455 675.46027
65.50187 120.39594 674.51074
97.80922 123.18886 676.56616
107.52011 124.12102 676.67108
89.03532 122.08314 676.42432
78.38217 120.93223 676.11945
68.91611 119.81815 675.82166
101.09792 122.59473 677.69147
72.42994 119.83270 676.57471
62.38066 118.70140 676.21625
82.93987 120.41692 677.60590
92.24986 121.22979 678.08728
104.56900 122.11938 678.78662
109.82278 122.59571 679.15509
75.81742 119.24259 677.95282
86.38697 120.12041 678.74432
95.76184 120.95108 679.15485
55.35619 117.26312 677.24597
65.66867 118.17384 677.41730
59.32691 117.31197 677.63629
79.32468 118.97659 678.91815
69.25214 117.87381 678.77075
99.28643 120.50286 680.08948
89.64059 119.29306 680.29010
107.06639 120.85007 680.99127
72.84790 117.65308 679.49298
102.75404 120.20730 681.26904
112.06490 121.06084 681.72064
62.47448 116.46176 679.29156
82.47125 118.11527 680.64172
93.24288 119.05566 681.13989
51.80088 115.44787 678.17560
65.89821 116.17760 680.32227
76.00591 117.02754 681.05853
85.96932 117.84587 681.64087
96.77670 118.79106 682.13873
55.78553 115.09106 680.04504
49.04347 114.16535 680.69202
109.38190 119.35181 683.39819
114.93890 119.85131 683.62128
59.24591 114.83057 680.94067
69.14303 115.64366 681.58173
79.43253 116.51803 682.24902
100.22622 118.32159 683.18958
105.21704 118.76725 683.39783
89.12573 116.99359 683.33850
72.64338 115.39048 682.47174
52.66236 113.53223 681.19434
62.56450 114.24326 682.34418
82.99201 115.92633 683.66241
92.67690 116.74374 684.25079
112.15341 118.25980 685.36884
66.04235 113.98807 683.22131
75.88059 114.76201 684.08807
96.20667 116.48476 685.21881
102.59412 117.03233 685.58490
46.06205 112.21703 681.62860
56.22673 112.94573 683.00665
86.23047 115.39125 685.00226
107.19760 117.24477 685.98694
116.51839 118.06762 686.29767
79.77855 114.51644 685.18829
49.88499 111.88799 683.34644
59.60719 112.66064 684.03949
69.37621 113.42980 684.86292
89.63797 114.81886 686.31006
99.42981 115.66097 686.79285
43.37637 110.82809 683.53204
72.87790 113.18504 685.71027
53.42321 111.33206 684.59613
62.91872 112.12159 685.13953
83.05818 113.72857 686.56903
93.20089 114.57876 687.17065
109.89728 116.00014 688.14471
113.52650 116.35030 688.08142
104.59473 115.35804 687.99902
118.86681 116.60208 688.59753
46.69970 110.26913 684.80798
76.44550 112.61581 687.02325
56.91723 110.84623 685.80334
66.18441 111.57341 686.54462
86.33364 113.21532 687.80096
96.45184 114.05315 688.51202
79.89711 112.34873 687.99817
40.54024 109.09361 684.75409
50.10605 109.75175 686.16986
60.26100 110.55317 686.88434
69.51223 111.26898 687.71075
101.01341 113.90186 689.42542
89.65971 112.62220 689.23499
107.32845 114.13779 690.06824
115.74657 114.85300 690.58099
43.85125 108.72134 686.48883
72.95280 111.00718 688.65088
111.88565 114.33484 690.56128
121.12856 115.11800 691.02527
53.47931 109.13869 687.74994
83.07163 111.53247 689.55328
93.16677 112.36789 690.17078
63.22313 109.67072 688.81030
47.35891 108.17074 687.71985
76.50183 110.43938 689.96497
98.19613 112.25614 691.08875
103.85096 112.79493 691.22784
57.04216 108.69014 688.76166
66.82870 109.47887 689.34387
86.38065 111.03938 690.68353
79.99431 110.19309 690.82611
118.08247 113.40530 692.85034
40.29255 106.85349 688.32465
70.13291 109.17225 690.52826
109.27202 112.47005 692.53918
50.43761 107.34431 689.33344
89.63213 110.42914 692.22833
113.14453 112.41958 693.42236
122.83067 113.29513 693.59137
43.70576 106.53227 689.51208
60.07923 107.84669 690.48792
73.73380 108.89920 691.51788
95.03285 110.67776 692.77625
100.84614 111.16125 693.14764
83.16841 109.38696 692.34772
105.81322 111.24365 693.81433
53.83709 106.83928 690.66223
63.75189 107.54903 691.84839
32.40459 104.78236 690.50311
47.05576 106.00330 690.64899
77.11543 108.35227 692.73804
37.99148 105.05587 690.54163
67.26805 107.32880 692.53949
86.66729 108.91512 693.63306
116.20810 111.38813 695.17249
119.82730 111.68700 695.65009
125.40155 112.17982 695.85229
57.20031 106.23318 692.22247
92.23367 109.08937 694.27063
97.71405 109.47333 694.87079
109.00157 110.42912 695.40051
70.72887 107.08644 693.36444
41.46182 104.51006 691.75781
50.06351 105.16161 692.37842
80.16748 107.51279 694.46344
102.75771 109.36877 695.74884
112.63724 110.21059 696.18060
60.71803 105.77965 693.29327
74.05695 106.79530 694.47540
83.64789 107.26760 695.32532
89.29521 107.70712 695.80554
44.92787 104.04307 692.84882
53.53533 104.69472 693.50098
106.15005 108.90720 696.80426
122.58913 110.31950 697.52563
34.64968 102.96040 692.61102
64.07251 105.17049 694.87653
94.47650 107.65002 696.64319
117.81158 109.56506 697.87860
127.27261 110.35669 698.44977
67.86296 105.25762 695.37354
77.27704 106.02525 695.83057
99.83372 107.82009 697.34229
38.16588 102.73307 693.38226
57.80271 104.16430 695.10773
109.46411 108.31306 698.24664
47.90139 103.20108 694.61108
71.33022 105.02235 696.15771
114.12263 108.47177 698.88177
81.17979 105.46782 697.34576
86.19668 105.92883 697.40790
103.17552 107.24418 698.70203
41.51653 102.18894 694.76617
61.23036 103.68658 696.33472
91.45374 106.07646 698.17902
32.06138 101.21097 694.50079
51.37756 102.65665 695.83087
96.95710 106.19025 699.14325
120.11528 108.14220 700.12646
123.81712 108.50346 700.30151
129.89978 109.03172 700.52820
24.89912 100.47904 694.00195
74.45180 104.22652 697.67462
35.81815 100.97765 695.40161
44.80696 101.65559 695.95764
54.97772 102.45689 696.51178
65.20938 103.18002 697.56793
106.32191 106.43512 700.29590
68.95569 103.25452 698.13452
77.98032 103.93723 698.75525
111.59814 106.67765 700.67365
116.77098 107.12782 701.02588
83.71101 104.13449 699.42932
88.39886 104.49772 699.81482
100.21954 105.42538 700.49030
