997.77069 11.49247 -951.52106
1000.35999 5.30509 -948.84497
996.80829 15.70810 -962.29614
1033.73499 11.93785 -960.12500
1018.09998 12.49920 -910.47699
1024.49353 14.56522 -962.65997
1025.98999 3.81887 -948.44025
1003.50427 8.01967 -945.92480
1000.14001 19.64920 -909.29199
998.74731 15.67010 -933.13574
1030.20508 9.55163 -932.03003
999.07849 15.52790 -906.50800
997.77563 17.13874 -962.68994
1004.59998 11.10850 -962.76099
992.49622 18.18740 -913.20947
999.36536 15.67098 -933.10999
1019.90338 3.79898 -940.93878
991.76068 15.67010 -933.11853
1030.38000 20.09420 -962.58002
998.86450 5.84881 -933.14899
1000.76660 7.69051 -948.64685
1012.08667 4.57878 -913.34698
1025.97583 8.44298 -948.53693
1016.19000 10.10190 -906.52954
1003.98254 13.22740 -945.87280
988.09198 12.78941 -924.27582
988.10815 6.77298 -924.13007
1000.67444 9.81702 -962.68903
1025.97498 7.89498 -930.41400
1025.89832 8.76123 -933.33899
1000.76001 4.79498 -962.65900
1001.22998 5.96000 -947.97803
1033.70239 10.06895 -961.36499
1025.58997 17.60060 -946.05750
1010.21997 6.02167 -962.40997
1002.06110 9.04498 -962.60010
996.34100 8.86604 -911.77698
1014.16003 13.22780 -912.00122
1013.53149 18.32810 -932.99921
1018.19000 4.90938 -910.47699
1026.39001 6.90598 -921.19812
1027.43994 18.63580 -962.67499
1025.91504 14.65240 -925.15802
1032.73083 17.52747 -941.16199
1022.00720 16.70585 -940.76202
1000.17499 19.26985 -910.01953
999.28998 17.67000 -906.53198
983.25024 8.21977 -931.17853
1000.22998 18.50740 -906.48199
1027.01001 9.71655 -932.03003
1027.28003 15.55450 -962.20300
992.84058 5.47898 -933.53528
994.34875 18.04902 -932.73901
1029.30005 19.65680 -962.67499
1018.16003 7.52412 -910.47699
1002.81396 7.68873 -946.60211
988.09100 17.07163 -929.15295
1000.22998 19.78200 -906.53198
1012.54999 16.14350 -940.76147
995.93994 14.47906 -933.10999
1018.19250 10.81255 -911.45203
1010.20502 13.39720 -933.10999
997.40997 4.83054 -906.52954
1018.73254 12.00490 -913.09698
1027.80994 9.71517 -957.44598
1018.09998 11.04720 -910.47699
1035.66333 10.09489 -940.85431
1003.49634 8.01044 -945.91718
1027.56995 18.50075 -960.12500
988.07349 13.88075 -913.55200
1004.04498 7.28257 -945.24298
1033.69995 15.90025 -960.44049
1033.68994 19.30320 -960.12201
1002.82428 10.40861 -913.11700
1018.19000 16.70640 -911.45203
996.36804 7.90187 -911.45197
989.83203 14.23150 -913.24701
988.11243 7.41298 -929.20184
1000.38000 5.20938 -948.87402
988.16028 16.39645 -913.16901
1033.01062 15.62777 -941.16199
988.09100 9.09898 -918.65222
1003.42096 18.05770 -962.28998
1000.14001 18.38425 -911.47449
994.42999 6.77698 -913.09698
1033.79004 18.58240 -957.57501
989.51599 9.73295 -933.34399
1019.88251 18.07541 -932.40112
1018.17999 19.26355 -906.51050
1020.11316 11.66805 -962.69000
1025.98047 6.62998 -955.81873
999.28998 11.52090 -906.53198
1018.09998 8.62220 -910.47699
988.09290 16.01310 -932.73999
996.17499 15.71020 -932.90900
1033.72754 18.18445 -960.44049
982.29950 7.93146 -934.07501
1025.92871 11.10870 -930.28998
997.40997 4.65021 -906.60699
985.16028 14.78653 -927.96509
996.37903 12.39415 -910.80200
1033.72998 20.01750 -960.12201
1033.51001 12.94840 -940.88098
1025.96497 4.83798 -941.61481
1027.55249 18.52195 -959.52502
1018.75598 18.05533 -932.73901
1033.68994 18.68720 -962.31396
1026.04004 10.86790 -962.24597
1025.58997 5.98058 -960.81500
1016.32001 11.10850 -962.69598
1015.85999 16.65685 -940.76202
1015.73499 11.10520 -906.53455
1021.09265 11.23300 -962.69000
990.05090 10.16454 -933.51898
1000.40997 8.79717 -913.32202
1027.56494 18.57740 -957.77502
1025.97083 11.10500 -956.79865
996.34601 10.74940 -911.12695
1016.19531 11.10870 -962.69000
996.34003 18.49873 -906.55225
1017.99329 8.30699 -913.49701
1028.63000 19.18407 -957.67181
998.66418 7.21433 -962.29004
1018.19250 14.20055 -911.77698
988.09100 12.90956 -928.25623
1027.33997 16.27743 -958.79095
1025.70996 13.39720 -945.21802
988.09100 8.84198 -913.20575
1033.68994 11.21920 -960.43500
1033.71509 18.27440 -957.57501
1017.64905 14.63510 -962.66138
1033.67749 20.82070 -962.31396
1014.15997 14.41844 -907.29797
1018.15002 19.92735 -906.50702
1006.40002 16.00270 -932.85901
999.23999 15.78320 -906.51300
1033.71997 18.57175 -960.75903
1018.38000 15.65840 -907.55798
1033.68994 18.50250 -957.93103
1033.40747 20.53795 -957.65826
1027.16650 8.48598 -948.61798
1026.49243 17.79121 -932.42902
1015.28003 8.63737 -906.50800
1004.79565 9.39520 -913.11700
988.08771 13.33206 -922.53198
1026.36316 7.89498 -913.19604
1008.04144 15.25414 -941.81934
1025.83997 13.35240 -915.57648
1004.79565 9.77798 -913.13202
995.74915 6.09731 -933.51898
1003.30426 13.43810 -962.68201
1033.68994 18.76867 -961.70203
1001.20264 12.08126 -948.09009
1014.34497 19.21770 -911.20398
1018.08002 18.82740 -912.66699
1025.93494 13.27595 -913.09393
1029.20496 19.64220 -962.52502
988.46350 13.75582 -932.73999
1028.03003 5.72238 -957.72498
996.28998 8.39021 -911.77698
1033.68994 10.33920 -958.88501
1015.25500 7.72154 -906.45697
988.09100 6.39069 -917.43994
1008.81696 10.56470 -962.29004
1018.19501 10.50170 -911.45197
996.51813 11.10500 -962.67249
1028.72400 18.32800 -940.98096
1025.95996 5.94198 -957.07898
991.62848 8.44962 -963.12500
1018.15997 15.90400 -911.45203
996.34003 18.43190 -906.50800
1025.96606 11.01900 -949.46710
988.62573 16.90320 -960.99103
1012.54529 9.22399 -941.16205
1033.07495 18.62300 -957.65247
1003.44604 5.67311 -946.40955
990.71826 4.75412 -963.12500
994.74695 18.62800 -955.54675
993.44897 10.53950 -958.11865
994.29480 5.52019 -933.51898
996.16101 4.61521 -909.60699
1025.95996 5.35348 -925.53900
1033.73999 11.15020 -960.12500
1000.81000 16.88180 -948.85400
1021.12109 9.04498 -962.33344
1022.87793 10.38870 -962.68152
1025.58997 5.32565 -931.81830
1014.38745 20.19268 -907.51874
988.09100 7.37848 -915.70172
1028.56494 5.48987 -957.67151
1001.46228 18.41722 -948.39563
996.69592 7.30112 -953.16205
998.32501 9.94944 -906.55353
1017.15997 5.13421 -906.53198
1014.11243 14.54735 -911.55200
996.36804 16.69990 -911.12695
1000.16003 3.79898 -906.99329
1025.95996 14.21940 -922.79102
996.16101 4.00094 -913.07953
1033.79004 18.67040 -962.62000
1001.22998 5.89603 -947.96802
1008.04999 13.40040 -932.82904
1033.07495 19.19202 -957.67023
1002.22424 11.10870 -962.45880
1033.73999 18.31920 -962.62402
1018.17249 19.76268 -909.33698
1025.70996 12.79220 -945.19800
1015.73499 12.88640 -906.55103
1024.08069 12.10393 -962.65991
1025.96936 6.77698 -932.85144
1007.63745 12.41310 -933.14001
982.70099 15.44470 -931.90997
1032.04492 18.59203 -962.57874
1025.96606 7.14598 -948.00128
1018.17999 19.01920 -911.85693
988.19720 14.70280 -919.02527
996.34222 8.42387 -911.12695
1032.41003 18.46920 -957.62598
1025.58997 7.27969 -948.35699
1032.04004 16.59560 -962.82593
1032.74243 18.26920 -957.62598
1018.08002 20.22740 -908.83899
996.38501 18.99420 -909.33698
1033.71509 6.69238 -961.36499
1002.11298 10.18296 -933.51898
1000.16003 4.94398 -913.11700
1033.79004 11.29040 -961.41498
1019.16498 9.37012 -941.16101
999.23999 8.10577 -906.55103
996.16101 10.30300 -913.10303
1000.14996 18.64295 -908.92822
1025.95996 13.40280 -924.16602
1029.70996 19.83550 -962.57501
1027.56995 18.19275 -958.92499
1011.82001 16.14540 -941.04102
989.13354 13.93610 -933.14001
1025.95996 8.51380 -947.59546
1018.17004 12.49490 -910.47699
1025.98999 13.15860 -926.58472
1033.79004 12.14840 -961.41498
1033.64001 18.80240 -957.57501
1000.22998 19.23200 -906.45697
1015.85999 11.10675 -962.76648
1003.06750 16.96020 -932.85901
1006.38000 13.38020 -932.90900
1015.40997 12.10810 -962.28998
1012.32001 16.96080 -932.89099
988.09131 16.29760 -922.34570
1025.98999 18.05187 -932.64917
988.47699 14.01525 -913.12299
1004.57001 11.10675 -962.73853
1008.18500 16.99620 -962.52246
1025.98999 7.74798 -943.25403
1032.74243 18.26702 -962.62280
1005.15997 16.92670 -944.47998
994.86279 5.49773 -913.12701
993.82373 15.67060 -933.10999
999.86420 18.68937 -906.51178
1025.95996 5.94198 -946.15259
1030.48096 9.80183 -941.16199
996.28998 9.64421 -910.47699
1017.15997 7.72154 -906.53198
1015.73499 4.83054 -906.52954
1005.78143 9.37541 -913.11700
988.12097 12.49910 -927.80786
1025.97705 14.54910 -945.96381
1005.42499 8.18192 -943.86597
1025.98999 11.76660 -944.21045
998.25928 15.70810 -962.60443
998.91699 15.48390 -906.50800
1018.38000 8.90045 -910.42700
1015.28003 15.66800 -906.53198
1013.02289 16.77935 -940.76202
988.10815 9.15298 -930.07898
1028.04004 18.69420 -957.66901
1018.13000 18.38460 -913.34399
1025.98621 6.77698 -931.87646
1033.68994 9.36255 -959.19501
1001.79028 7.69291 -947.62256
996.65601 17.62502 -913.60474
1016.60999 13.27380 -941.02002
1025.97424 12.10310 -956.52777
1021.72998 5.87398 -913.09698
1018.17999 19.51920 -907.54950
1028.06238 7.03259 -932.03003
988.11560 10.30300 -914.20905
1026.35999 6.70327 -920.26642
1011.61896 18.02810 -962.52130
1027.81006 11.41857 -957.44501
1024.41907 12.97120 -940.76202
988.09137 16.29618 -925.24091
992.99384 16.15357 -963.12500
1000.15002 18.17800 -907.83698
993.89417 10.16300 -933.54205
1025.97314 10.38900 -932.85150
1019.64453 14.76955 -933.14001
1018.13000 18.93550 -907.20203
1002.93280 18.54270 -946.92633
1014.51001 16.91923 -932.78998
1030.99878 12.99333 -941.16199
993.44897 15.71410 -961.30450
989.35284 8.44962 -963.12500
1025.76001 15.71220 -927.58704
1033.52002 5.63898 -960.70099
988.59021 14.47110 -933.13000
1025.95996 4.32598 -932.36401
1025.98999 8.31760 -952.78503
1011.73499 6.03417 -962.40997
1018.16998 12.90575 -911.45197
996.62231 14.63510 -962.66980
988.09106 5.07198 -928.01044
1025.96790 8.44298 -961.72369
988.10596 4.87498 -932.21472
1030.15991 7.55855 -962.82501
1025.97498 8.49898 -927.00146
1014.36499 18.30740 -906.50702
996.36499 10.83520 -910.42700
1004.12952 6.55098 -962.68030
1002.04999 6.53998 -947.11798
997.60400 17.57690 -906.55103
1014.34998 18.01550 -908.20581
1017.10999 8.55321 -906.53455
997.35999 10.77290 -906.60699
996.38873 11.25855 -910.80200
1000.22998 18.83240 -906.45697
1003.54333 10.82800 -933.14899
1015.08929 13.21291 -932.74005
1002.89001 6.57731 -946.27301
1016.87000 13.39785 -933.14001
1011.71002 3.84878 -962.51416
1033.52002 15.60500 -961.81897
988.09302 7.17045 -923.15802
1003.83752 7.69376 -945.57611
1001.55975 10.85110 -933.14001
995.84003 16.71100 -962.48499
1024.07117 15.70810 -962.68860
1003.10498 6.55792 -946.18549
988.04797 14.98697 -918.05200
1034.34998 6.06839 -931.88300
1028.28003 10.31468 -962.82599
1014.38000 19.33640 -911.48700
1025.83997 10.97740 -925.53900
1000.14001 18.43425 -911.47449
1018.17004 10.82290 -910.47699
1030.58740 19.16675 -962.60803
1018.16748 18.32545 -912.21698
1025.98999 13.71585 -954.94678
1025.98999 6.85598 -950.93280
1014.56000 3.79898 -913.51703
1033.52002 13.30840 -940.85095
994.64697 9.85749 -957.26874
993.82104 14.15777 -932.73999
996.16101 5.26211 -909.19702
1018.15503 18.02800 -909.68890
1030.03003 6.81421 -957.67401
1002.70386 13.40110 -933.14001
998.73560 10.23671 -933.51904
1014.44000 18.23240 -913.40198
1032.04004 9.64163 -957.44598
996.34998 19.92430 -909.83801
997.40997 12.40090 -906.60699
1025.98999 8.80216 -953.25665
996.36499 6.43221 -911.77698
996.38873 19.53767 -906.50702
1008.73853 6.54355 -913.11700
1033.64001 9.24437 -961.41498
1003.15497 7.69615 -946.25806
1004.66400 4.05631 -944.62701
998.32501 9.12811 -906.51300
994.67700 11.10070 -962.65900
1018.15002 11.49540 -911.45203
998.00500 12.15320 -951.61102
1027.33997 10.98758 -957.89337
1023.02722 14.61091 -962.65997
1014.34003 18.63800 -906.45697
1017.10999 8.11321 -906.53455
998.94153 8.00761 -933.51898
1027.17004 15.74040 -940.76099
996.34222 9.43587 -911.12695
996.36804 7.37387 -910.47699
1025.78003 5.90138 -957.56396
988.28552 13.14260 -961.00647
1018.17999 20.11200 -906.60699
1025.97766 14.54910 -955.56738
998.24304 6.03498 -962.68152
1009.33270 18.03012 -962.28998
983.36414 16.47423 -934.07501
1025.58997 6.28523 -941.22845
998.32501 6.18204 -906.50800
1000.76605 8.12258 -948.64526
996.28998 5.61821 -910.45203
1018.25000 12.49920 -911.77698
1015.22998 9.72354 -906.60699
1025.93994 15.75280 -920.04303
1014.79602 13.99553 -962.69000
999.12000 16.00540 -932.79901
999.23999 7.97377 -906.55103
988.09100 7.37734 -923.13849
1025.77490 5.68748 -962.68903
1033.92004 17.47120 -962.12354
982.75500 8.54317 -931.88538
983.54999 11.81030 -930.75098
1028.04004 18.32545 -962.61304
996.34100 10.40600 -911.77698
1010.80817 15.07101 -962.69000
1004.25031 10.82800 -933.29187
1030.94995 19.84420 -962.58002
1026.04004 15.41740 -962.29700
1005.44000 8.26132 -943.71399
1032.01453 6.44348 -948.38800
1025.97632 11.10870 -949.80530
996.17279 6.61340 -962.65900
1033.68994 16.12650 -960.12201
996.84534 17.38814 -932.73999
1007.26001 7.74755 -913.11700
1014.28998 18.81030 -912.64600
1001.27002 5.89967 -948.00500
1018.25543 9.81702 -962.68469
1005.99762 17.05810 -962.50580
1028.03003 6.51438 -957.72498
1033.73242 20.45967 -959.16724
1025.95996 14.60578 -950.76563
1023.08752 13.35280 -913.14801
1016.26001 20.14790 -906.50800
996.16101 16.85940 -906.32800
1018.15503 19.77020 -910.33551
1003.32227 12.12975 -945.96765
999.21808 10.24900 -933.53131
1022.56067 18.36989 -940.76196
1015.59998 15.81690 -906.55103
1021.95807 17.05810 -962.30847
1012.14001 10.67783 -962.68909
988.34705 6.14878 -921.38531
993.81006 6.08298 -933.54901
996.38873 10.73255 -910.47699
1033.71497 7.86271 -958.88501
1025.98999 11.33227 -943.17047
1025.91003 14.67740 -913.09698
1032.74243 18.51050 -962.61902
1007.44861 15.70810 -962.51196
1028.00000 12.64007 -932.39905
1000.76648 7.69330 -948.64569
1018.09998 9.19421 -911.77698
1018.24664 17.55370 -906.46027
996.34351 6.00171 -911.45197
1007.16333 13.31410 -942.13202
1022.13037 9.37112 -940.76202
1025.95996 12.10735 -949.19794
990.55493 7.68604 -933.54901
1018.17499 4.66821 -910.47699
1030.03003 6.32154 -957.66901
1026.38428 6.17498 -918.43219
989.16364 15.22792 -960.12738
1008.35107 14.63510 -962.68158
1022.84692 18.02564 -940.74200
996.34473 16.51355 -911.45197
997.40997 8.97327 -906.52954
1005.03033 17.12589 -962.69000
1000.38501 5.20013 -948.87451
1025.98914 10.38900 -951.84180
988.09100 14.33686 -927.80786
1010.21997 9.66278 -933.29498
987.18396 15.45269 -962.67310
1034.20618 9.55125 -932.03003
988.78601 16.99785 -933.14001
996.16101 4.61401 -910.42700
1017.54999 19.27415 -906.51874
999.88702 8.39451 -949.81207
1026.42358 16.98660 -916.53497
988.15601 17.23365 -918.67999
988.10815 6.77298 -920.65961
1018.09998 5.93821 -911.77698
1018.19000 10.32140 -910.47699
991.17346 13.40110 -933.03998
1033.68994 10.16320 -959.19501
1025.58997 13.39720 -933.10999
1009.76801 9.71362 -940.76202
1025.96497 16.69910 -961.82159
988.09100 16.87740 -916.95874
1014.34003 20.50780 -906.54401
994.67700 8.44298 -959.22723
988.24103 14.65240 -923.15521
1018.14246 19.53795 -907.20203
1002.78156 14.55551 -933.10999
997.40997 10.04690 -906.60699
1026.36755 6.17498 -914.87628
993.48901 8.86877 -933.14899
998.26050 17.63745 -906.52374
1025.98999 11.10778 -954.37140
1011.10498 13.27480 -941.01904
1016.65002 12.82120 -906.53455
996.44000 16.74820 -911.77698
1004.47998 6.54307 -944.81702
1025.85999 9.10317 -930.19958
992.47705 15.67010 -933.12122
1000.40997 14.21900 -911.55200
988.10596 8.58498 -918.17743
1001.79968 9.73298 -933.53119
1033.73499 18.39385 -962.31396
1033.79004 19.11040 -962.66998
1026.37610 6.69098 -922.15131
1025.58997 12.09240 -926.93201
1004.40393 14.41096 -962.28998
1028.87500 9.71598 -932.22900
1033.71997 20.63975 -957.93103
988.24103 17.22740 -925.56500
986.72198 8.24892 -925.94507
1018.69714 16.76710 -940.76196
1014.38501 18.59485 -910.30420
1018.19501 7.37771 -911.12695
1025.98999 10.27422 -957.01013
986.16699 15.41397 -963.12500
1028.04004 16.03180 -932.28601
1027.88489 19.26867 -962.82599
1025.98999 11.10516 -962.19977
1003.49640 7.69084 -945.91833
993.44897 8.21313 -960.84937
1004.38672 15.40920 -944.99817
988.09528 9.06698 -931.83325
996.28998 20.02400 -906.60699
1033.51001 12.94840 -940.76099
988.32855 9.09817 -916.07825
1028.56250 19.14160 -962.58478
993.86066 18.02928 -932.73901
986.58862 18.60379 -933.82068
988.78601 12.41310 -933.14001
1025.94495 12.04280 -914.21606
1001.65747 16.04180 -962.40997
988.21600 9.72690 -921.38281
1025.95996 16.69050 -942.76880
1012.68140 6.69098 -913.14380
999.23273 20.27990 -906.50800
1014.61743 18.28340 -913.50702
988.21600 12.04280 -913.22302
1011.02606 3.79898 -940.98450
1025.96350 7.74798 -947.12469
1031.67993 18.11485 -957.62848
1011.80145 17.05810 -962.42566
988.12097 4.27398 -917.59076
1001.11926 8.00651 -948.31702
1017.13501 6.89421 -906.60699
1026.29004 9.74384 -922.95203
983.83447 15.82515 -930.29773
1025.98999 7.60724 -949.95532
1030.09998 19.98040 -957.65002
1025.73499 15.69220 -930.34698
1025.98999 11.24430 -954.60706
1006.76709 8.23705 -913.11700
1032.74243 19.31920 -962.62402
1033.64001 13.00640 -961.36499
1012.37000 12.32977 -962.28998
1033.68994 12.49085 -959.50500
988.24103 11.23740 -925.55249
996.34601 18.06050 -909.33698
1033.92334 14.51450 -940.76099
1033.64001 19.11040 -962.66998
1033.79004 12.67640 -958.83502
1018.19000 15.47440 -910.47699
998.34576 4.08205 -950.94525
988.11670 8.58498 -915.70172
1018.15002 16.95140 -911.12695
1002.14001 6.58516 -947.01599
1015.28003 9.64937 -906.50800
1000.54749 17.02060 -962.40997
1021.85278 18.02427 -940.74200
994.64697 14.35180 -956.07800
995.63678 12.10310 -962.67969
1025.58997 10.26837 -962.38147
994.67700 5.34698 -956.77600
996.36804 16.25990 -910.47699
1025.97998 15.79410 -932.08154
1025.97852 10.38900 -958.44446
1033.71497 12.39470 -959.50500
999.71832 18.04783 -932.73901
1027.82996 18.88515 -957.67346
984.28815 19.16884 -933.71399
1006.25464 4.13351 -943.03650
1017.10999 10.77440 -906.55103
1000.16003 19.78670 -908.56445
988.21698 11.02780 -913.14178
988.28571 18.03004 -915.74298
1000.15002 18.77685 -912.65552
1019.64001 12.04240 -913.13452
1025.73999 12.13280 -927.92554
1028.56494 6.47471 -957.65247
989.33337 10.97800 -913.05701
1026.14001 9.14817 -925.08655
1010.67334 14.48087 -940.76202
996.40344 7.28933 -962.28998
1011.65332 6.08838 -913.39697
1025.58997 10.47168 -946.63483
1017.10999 15.34320 -906.51300
988.29150 10.82810 -932.73999
991.22333 12.07023 -933.10992
1010.21851 18.02810 -962.58997
1027.28003 17.02340 -962.14697
1021.67700 13.27970 -940.76105
1026.04004 7.00021 -962.24353
983.36414 12.23998 -934.07501
980.88007 15.97770 -934.07501
1021.51501 7.83398 -962.66205
994.65448 5.43298 -957.26874
1025.93994 16.07155 -914.21600
1022.62201 4.18618 -913.09698
1018.04498 12.02740 -940.70099
1018.13000 18.28550 -907.54950
1031.60632 14.76864 -941.16101
1033.73999 10.71020 -959.50500
1013.43823 15.70810 -962.66492
997.46600 13.39720 -933.10999
1018.13000 19.08768 -910.77698
1020.11554 14.54910 -962.68768
996.34003 17.66875 -913.59027
1006.90131 11.10733 -962.68903
999.75098 7.68685 -949.67700
999.76062 8.52898 -962.65900
993.44897 3.94373 -961.75867
992.69897 6.69098 -913.11200
1025.96497 4.75198 -943.88367
1015.28003 16.10800 -906.45697
1033.73999 20.01485 -962.62152
994.64703 15.59977 -954.64600
998.29102 15.69235 -933.10999
1005.64319 6.55098 -962.66193
1025.97327 5.34698 -947.51379
1033.70996 12.30235 -961.36499
998.76703 16.06740 -962.51001
1002.48358 7.69151 -946.95300
1018.19751 11.47685 -911.45197
995.84003 17.04560 -962.40997
1000.17004 19.98045 -907.17200
995.12714 7.14598 -962.67255
988.10596 13.18270 -925.56598
1027.36499 18.62580 -962.59998
1000.09613 7.69151 -949.34003
1033.79004 16.60240 -958.83502
1033.68994 6.45854 -961.36499
990.06213 9.85392 -933.54901
1025.97876 9.77798 -932.00745
1030.85498 20.25340 -962.59998
1025.93506 14.19445 -913.16907
1025.91003 17.40920 -913.13147
1002.16760 4.26218 -947.12341
1035.96997 8.87298 -948.54901
1002.06689 7.74798 -962.68750
1017.73999 15.75780 -962.51624
1016.19000 5.79854 -906.52954
1033.64001 15.65650 -957.72498
989.95599 5.79317 -933.27405
1019.95251 18.27740 -913.18298
1011.09216 17.94106 -933.14001
996.34100 9.48203 -911.12695
1003.09753 12.60420 -946.18994
1029.08240 16.48198 -932.30902
1015.59998 18.28090 -906.55103
1014.15997 16.68167 -908.26801
1026.35999 7.37898 -923.09369
1014.51001 11.06116 -932.76495
1029.67004 19.81485 -957.62848
1026.12549 17.35115 -941.16199
1004.69000 6.80495 -944.59802
1026.42712 12.06098 -919.55298
981.42151 15.57550 -933.30200
1018.15747 12.11785 -911.77698
1018.15997 13.92400 -911.45203
1024.84424 14.94250 -940.76099
988.09100 7.39498 -926.80896
1025.98999 6.12752 -958.75024
1019.64001 12.04280 -913.12299
1033.79004 16.58040 -961.41498
1001.11908 7.69107 -948.31683
1033.73999 15.45020 -960.12201
1000.14001 18.89920 -909.65576
1009.35004 15.70020 -932.85901
992.49695 11.02780 -913.12921
1026.36206 6.77698 -918.38159
1014.56000 17.47483 -911.82550
990.71826 4.57112 -963.12500
1027.36499 18.15240 -962.52502
1001.80115 7.69092 -947.63470
1013.70215 17.05810 -962.66199
1025.96777 9.81698 -955.24567
1018.20001 16.93500 -910.47699
1025.98999 15.75240 -913.88403
1025.98999 10.40241 -950.89856
999.75476 7.69092 -949.68079
1034.33496 5.61403 -931.83105
1007.72168 6.08838 -913.24701
1018.25000 14.39120 -911.80200
988.09100 6.19898 -922.97150
1008.41754 7.74248 -940.87427
1030.65955 8.48598 -948.61798
988.12097 12.43997 -928.70465
1025.98999 16.59586 -958.28198
998.91699 15.78320 -906.51300
1029.05005 5.45837 -957.57501
997.41821 9.73298 -933.52509
995.04700 16.05010 -960.18982
998.58875 17.32973 -906.50928
994.48602 13.05420 -933.10999
1027.32996 11.14570 -962.22198
1014.23999 10.06612 -940.76099
996.69415 17.57610 -906.72699
1026.04004 9.01363 -962.23523
1025.95996 7.22807 -961.19318
1003.89075 5.56557 -945.40167
1025.77490 12.25907 -941.16199
987.07727 5.64267 -963.12500
1005.03040 15.70810 -962.49353
996.35706 7.49962 -910.47699
1025.95996 16.95710 -950.72900
1029.13245 13.92043 -932.02802
1032.41003 19.06268 -957.62976
1000.38837 11.70210 -933.14001
1005.51404 15.70810 -962.61676
1007.97491 18.62800 -941.74347
1018.17499 11.37720 -910.47699
1033.92004 9.45787 -957.44598
993.44897 9.71513 -957.20837
1025.70996 9.77867 -952.30902
1014.28998 18.26400 -906.60699
1005.90497 16.31420 -943.38739
996.35706 19.41675 -908.61694
1025.98999 12.10310 -962.28998
994.72198 11.26545 -932.73999
998.32501 4.83437 -906.55603
996.44000 19.43100 -911.25897
1025.95996 11.02250 -930.90149
988.09100 16.98803 -926.20599
1006.40002 17.00110 -932.73999
1015.44000 16.58770 -906.53455
1019.24817 13.94792 -933.14001
980.97046 3.79898 -934.02692
988.09125 15.71714 -918.96729
1033.92004 12.82620 -957.79346
1015.73499 7.16254 -906.52954
1033.48242 20.61675 -957.64178
1004.17505 7.42585 -945.00305
998.23438 10.60054 -933.54901
1027.33997 10.91349 -957.44501
998.15509 14.03400 -951.70203
996.38751 20.28985 -907.20203
1025.98999 8.12057 -959.85931
1035.96997 13.16135 -941.16199
1006.14471 6.61340 -962.65900
1033.79004 9.70638 -961.36499
1018.38000 12.36128 -908.78796
1004.54669 17.05680 -962.94220
1009.50000 9.66278 -933.29498
1026.29004 9.09817 -924.45203
1009.86682 17.05810 -962.45648
993.49597 14.96530 -913.14172
1014.22668 14.38087 -940.76202
1025.58997 12.09719 -940.76202
1024.66895 7.28933 -962.29004
994.86267 5.48698 -913.11572
997.87903 8.52898 -962.66797
998.32501 13.34180 -906.55103
1007.42273 11.71365 -962.28998
1016.58997 19.31570 -906.53455
1007.41998 16.37700 -962.52246
1005.54749 15.02615 -944.27747
1018.15503 18.78170 -909.69696
1004.92004 6.80254 -944.37195
1014.32001 20.47120 -906.72247
1007.67999 3.79837 -913.39697
1025.95996 8.52139 -957.95160
1000.35999 5.95189 -907.72668
1025.98999 13.35240 -916.60699
999.95367 15.07238 -933.14001
997.28821 10.23825 -933.51898
1017.49750 6.03498 -962.44312
999.21808 10.24900 -933.52441
1033.68994 6.72471 -960.12500
1018.25000 16.43720 -911.77698
997.38501 9.65094 -906.60699
1006.77167 3.79817 -962.40997
1009.59601 14.86847 -941.16101
1030.07996 5.94238 -957.72498
1020.69000 17.99750 -940.74200
1033.72754 16.42445 -960.75903
994.82800 12.04240 -913.20947
1016.19000 10.42240 -906.55103
1017.09998 9.05667 -962.28998
1025.98438 11.10870 -931.71503
1025.97290 14.63510 -946.44397
1033.68994 19.38685 -961.70203
1025.98621 9.77798 -930.19714
1008.78998 3.79817 -962.48499
1018.15503 5.24671 -911.77698
992.69897 5.36523 -912.93512
996.39001 6.15438 -910.47699
1023.73999 4.91678 -962.52246
995.85901 6.52395 -933.55048
1033.72998 9.11754 -960.12500
997.86749 7.78527 -906.52954
1001.78979 8.01151 -947.62207
1000.35999 12.35133 -913.51703
1032.98010 4.67569 -957.44598
996.38501 19.14420 -910.05701
1001.10864 10.50166 -948.18353
1018.17499 6.77421 -911.77698
1001.73999 11.97240 -913.24701
1033.73755 20.68402 -962.62000
1031.68994 20.49015 -962.52502
1014.15997 12.29820 -909.23700
988.49200 17.72810 -925.63123
1028.34753 13.03945 -941.16199
1000.17749 19.07203 -906.83948
1027.58997 18.19520 -960.72498
1002.59998 9.09417 -962.40247
1018.16003 8.22813 -911.45203
989.47699 4.18498 -959.81403
988.21600 14.26900 -918.67999
1005.94873 6.80648 -962.68903
1015.63831 3.79898 -940.81653
1033.71509 13.24840 -958.83502
1003.75891 14.47110 -933.11829
991.40466 18.28166 -958.45209
990.05554 6.44898 -913.09698
1033.71497 11.91070 -961.36499
1014.16003 7.80284 -913.11707
989.56940 10.04206 -933.54901
1018.16998 6.60879 -911.45203
996.38873 10.55655 -911.12695
1035.96997 12.18260 -932.02905
1000.77429 7.69047 -948.65405
1025.06250 11.85700 -962.28998
1000.83502 16.15007 -948.93750
1025.95996 6.61287 -942.62677
1002.53241 3.79898 -946.79663
1033.71497 16.82670 -960.44055
1015.16302 8.89382 -906.72699
1033.79004 6.36238 -961.41498
1000.35999 9.69198 -913.13196
993.44897 12.64995 -961.30450
1025.98999 11.10723 -953.39282
1025.98999 15.70710 -952.07361
996.34222 13.87785 -911.45203
1025.98169 9.13098 -957.75183
1015.74115 10.56470 -962.44922
1012.51001 16.50845 -941.00452
999.46948 16.64830 -932.87903
985.88751 14.81845 -933.67401
996.36548 6.41021 -911.77698
1000.09277 7.69003 -949.33673
998.32501 11.07280 -906.50800
996.34473 18.91267 -909.69702
989.80798 9.52219 -963.12500
1018.09998 14.74320 -910.42700
990.18799 16.90840 -959.49902
1025.95996 8.50973 -932.36401
1018.13000 19.83985 -907.89697
1033.68994 12.35668 -958.88501
1025.93994 14.70280 -918.66901
1033.76001 17.55370 -962.66498
1021.09265 17.54310 -962.69000
999.47449 4.69403 -949.69299
997.47418 12.07890 -951.81885
988.09003 16.06922 -918.03748
1017.97998 15.19169 -910.29486
1024.44092 14.04108 -941.16101
1025.98694 12.18910 -944.37567
988.09186 13.95593 -920.89813
1018.17999 19.36400 -906.45697
996.28998 20.07740 -909.46997
1026.36206 7.89498 -921.20892
1002.09003 16.56820 -933.12500
996.61267 15.60827 -933.14001
1013.62128 4.38465 -933.14899
982.89197 15.40477 -931.89880
999.07849 15.96790 -906.50800
1016.19000 12.12590 -906.52954
999.47198 4.61778 -949.77802
1025.98999 12.40410 -948.43567
1019.39197 12.12130 -940.76202
1014.36005 18.73670 -909.60474
1026.41003 16.98660 -919.55298
1025.95996 17.04185 -957.13745
1024.49255 16.06740 -962.51001
1001.18591 9.85200 -933.54901
993.44897 14.77110 -955.84192
1025.98999 6.70528 -956.30731
1032.41003 18.14420 -957.66901
996.36499 20.52740 -906.63300
986.84198 10.18385 -933.50671
1014.14581 6.86298 -962.59918
1025.85999 9.81617 -953.81702
1018.35999 20.35570 -908.16602
997.65503 16.90840 -952.20099
1022.48169 11.70834 -962.28998
1021.70416 11.90822 -962.28998
1018.16998 11.67375 -911.45203
1031.67993 19.36920 -962.62402
1015.28003 17.74855 -906.55353
1018.09998 16.19520 -910.42700
1026.44067 13.00799 -913.57501
1017.40582 6.03498 -962.68561
1016.19000 8.13004 -906.55353
1003.50684 7.69340 -945.93079
1010.60059 14.47110 -933.11835
1025.98999 9.05571 -962.22198
1008.07068 15.41040 -933.14001
988.12097 7.89498 -926.60901
992.64136 10.24413 -957.21570
1017.10999 5.24421 -906.45697
988.44128 4.15298 -933.54901
1005.38000 8.18793 -943.85999
986.50867 17.05987 -926.62079
1025.98999 11.59730 -943.60803
1026.04626 8.00299 -958.33197
1032.41003 20.31050 -957.63098
1019.13373 11.31069 -962.69000
1018.20001 16.23100 -910.47699
1002.14270 7.69323 -947.29474
1025.83997 11.02740 -915.57654
1009.71582 11.35398 -932.73999
999.96002 8.04204 -913.49707
1033.71997 15.75575 -959.48547
996.38501 19.34420 -907.89697
1024.49255 15.75780 -962.53497
988.09100 14.55630 -924.75812
1033.07495 18.88985 -962.57751
1004.44171 15.69133 -962.69000
1013.26776 18.02810 -962.29645
1015.73499 11.21005 -906.55353
1024.64221 11.00585 -940.76099
1000.10999 5.91173 -911.95203
1002.58539 17.86438 -946.70770
1001.98798 12.97110 -947.30127
1026.41003 16.99583 -917.46747
1032.51001 12.97517 -962.82593
1014.15997 13.67363 -906.81299
996.34100 18.21920 -906.50702
1011.83997 16.16270 -940.99200
1018.17004 5.44988 -911.77698
998.08844 10.51541 -962.28900
1026.35999 6.75855 -917.43915
1014.15997 6.08898 -913.12451
1015.28003 13.09770 -906.55603
1019.95251 16.90240 -913.24701
996.39001 19.63550 -910.83496
1017.96997 10.85240 -933.19397
1033.73999 18.82740 -962.52502
1018.20337 3.79912 -932.87335
1017.06000 12.10740 -962.34998
1025.98242 12.18910 -929.67297
1014.34747 18.91768 -907.51880
991.23602 9.01219 -933.54901
986.44202 17.05987 -930.97742
996.16101 10.46352 -907.14801
988.78601 15.67010 -933.14001
1015.73499 8.30171 -906.55603
1025.73999 3.79898 -943.87115
1018.17499 15.93120 -911.82703
1018.17999 13.55950 -910.80200
997.40997 11.65290 -906.53198
1026.36108 8.49898 -917.43909
1025.98999 11.10508 -954.86072
997.86749 11.00980 -906.55103
1025.96204 11.01900 -952.39862
1014.38000 18.29920 -912.05298
1033.64001 7.28637 -961.36499
1030.06995 19.97050 -962.60199
1027.57996 18.49450 -961.32501
1014.35999 18.53670 -907.51880
993.44897 11.28894 -956.29712
1001.67999 16.99720 -933.13245
993.13171 6.12123 -913.12701
1027.32996 8.39571 -962.14697
1005.40552 3.79898 -944.07550
1026.35999 7.29298 -924.97852
1030.94995 20.21920 -962.62402
988.12097 16.57895 -927.80786
996.34351 14.35970 -911.12695
1018.15503 10.08670 -910.47699
1006.92078 6.43448 -933.14905
988.12097 7.37698 -917.18903
988.11591 3.64783 -921.49493
1026.41003 16.99121 -919.41254
1000.21002 12.77060 -962.65997
1025.79004 12.96820 -933.12500
1011.69574 7.37898 -913.13098
1007.26001 12.02240 -913.24701
1018.64404 11.76128 -962.69000
1033.68994 6.28254 -958.88501
1000.35999 9.67499 -906.81305
1027.50000 18.67730 -957.65997
997.45502 15.99270 -932.90900
1009.69348 18.05241 -941.16199
1013.44501 11.48030 -913.34698
1022.42596 7.14598 -962.68005
1014.44000 20.20780 -908.92902
1007.75287 7.61855 -913.11700
1025.83997 14.70240 -925.48901
996.35199 19.42545 -906.50702
1016.60748 3.84878 -962.53497
991.79395 5.53753 -957.49805
1003.45636 7.72218 -962.68903
1015.28003 11.22470 -906.51300
988.09161 14.54351 -920.89807
996.28998 5.09021 -910.42700
1018.39001 12.44365 -962.28998
987.85638 8.21078 -961.80548
988.32849 9.14878 -921.76050
988.12097 4.90748 -916.13159
996.38751 18.58985 -909.69696
1025.98999 10.94957 -958.42053
999.28998 9.36494 -906.45697
1033.68994 19.42650 -960.44049
1025.95996 11.06550 -929.43896
1017.09998 9.09417 -962.28998
1017.10999 17.06790 -906.50800
1018.09998 5.23421 -911.82703
1018.17499 14.21520 -910.47699
982.00635 8.21517 -932.89948
1033.68994 18.29120 -957.93103
997.55652 15.47320 -952.10950
999.75598 7.69614 -949.68207
999.79218 17.79071 -949.50116
993.44891 8.64786 -957.20734
1033.73999 18.37740 -962.52502
1028.05493 6.98887 -957.57501
1000.81500 9.09417 -962.44000
1000.17499 18.71985 -909.65576
1030.85999 13.05720 -932.28400
996.28998 14.32820 -910.42700
1033.73999 7.27821 -958.88501
1014.34998 18.93045 -909.60474
1000.39746 13.35405 -911.40198
995.48279 12.07010 -933.12610
997.93225 19.52320 -906.51300
996.34003 18.48405 -906.53198
993.99719 9.16348 -913.12701
1014.51001 11.64163 -932.89417
1009.38000 12.07010 -933.14001
1017.10999 6.36188 -906.53455
1032.41003 19.59420 -957.66901
1011.67157 7.16183 -962.44989
994.86200 9.46049 -962.47400
1018.25000 14.34720 -911.82703
1025.74756 16.68470 -926.97198
1027.28003 7.44971 -962.14697
1028.77002 18.66485 -957.62848
1033.52002 13.61007 -961.78528
1020.50500 6.23948 -913.09698
1026.41003 14.48706 -924.06897
1014.23999 7.11878 -913.11700
1032.97595 8.87298 -948.45697
996.52960 7.19758 -962.65900
1025.98999 7.23934 -954.32385
990.18799 11.77640 -959.49902
1033.73999 20.28767 -957.67273
1032.41003 19.56050 -957.63098
1001.34570 13.05800 -913.21704
995.11060 11.10640 -962.68909
986.84198 8.67882 -929.73834
1033.64001 12.25840 -961.39001
981.78998 15.57701 -933.67401
1025.67993 12.11240 -956.00305
1000.02667 17.07940 -906.66034
1016.91998 18.42945 -906.52380
990.06213 9.74642 -933.54901
1002.99268 11.10850 -962.68903
991.85754 4.99458 -913.09698
996.39001 19.33550 -911.50098
1006.40002 12.07290 -932.85901
1025.96069 6.62998 -946.04694
997.35999 13.19290 -906.53198
1014.37000 18.92800 -910.65399
988.12097 5.56498 -930.81329
1012.06384 18.32810 -932.78448
1003.65167 13.90620 -945.63000
999.74170 8.54331 -962.28894
998.32501 9.92877 -906.50800
1003.25000 13.43740 -962.28998
1025.95996 7.81121 -949.47839
997.64349 12.11340 -952.19653
1028.00000 12.20907 -932.31903
1026.32617 18.01260 -940.74200
1015.44000 15.58440 -906.52954
1006.26001 14.44910 -943.59399
1015.22998 16.17400 -906.45697
1005.31299 4.89711 -933.14899
995.02057 16.29610 -956.77698
1025.95996 4.21909 -947.51385
1004.52002 11.10675 -962.69653
999.38403 5.01688 -949.90698
982.82562 8.22039 -931.91516
1020.22040 18.03402 -932.73901
993.44897 5.77112 -959.48401
1004.10846 4.97031 -933.14899
1028.27246 5.34198 -932.12976
1016.65002 4.94571 -906.51050
988.16602 14.95240 -925.51501
1015.22998 16.24000 -906.45697
996.37402 18.18795 -908.97693
997.40997 8.30894 -906.60699
1001.78973 18.32810 -932.97705
1017.10999 10.75750 -906.60699
996.39001 18.98550 -909.33698
1018.22998 18.45940 -913.21899
1014.15997 11.64467 -913.25037
1028.02332 12.65987 -932.25897
1010.21710 13.10494 -913.11902
996.34601 19.26050 -910.77698
988.12097 8.53277 -924.62585
999.30603 4.52115 -949.84497
998.91699 15.36600 -906.45697
998.02081 15.92980 -951.62573
1027.65002 18.77285 -957.65247
996.28998 6.45421 -911.82703
996.16632 4.18587 -953.48535
1012.35626 10.51240 -962.75323
1023.68604 6.03498 -962.39996
1025.95996 12.46143 -961.82159
1032.79004 20.67740 -962.67499
988.19098 11.99280 -915.92700
993.23016 15.48460 -933.14001
1014.32001 18.38000 -913.44800
1025.98999 10.30283 -958.89313
1033.73999 20.68620 -962.62000
988.12097 10.34600 -925.12164
997.35999 13.29180 -906.45697
1014.37000 19.52800 -909.25500
994.66949 4.75198 -961.18823
1025.98999 5.94198 -949.32898
1004.03168 10.16300 -933.54797
1025.83997 18.31490 -923.47803
1025.98999 5.73838 -960.83301
1018.13000 18.34203 -912.51898
998.66187 6.55098 -962.66290
988.20349 16.87780 -921.43500
1016.19000 12.54470 -906.51300
994.67700 15.92310 -956.77698
993.44897 15.49973 -959.02887
1012.76874 15.70810 -962.64764
1025.89832 16.16643 -962.28998
1016.83002 12.11080 -932.88202
1033.69995 6.80429 -959.19501
1003.81000 9.71041 -913.14697
996.34003 20.50370 -906.53455
1001.34570 9.69198 -913.13092
995.74347 8.11367 -954.11359
1030.79956 17.99887 -940.74200
1026.36963 6.69098 -920.26642
1004.62616 10.24882 -944.66486
998.80804 9.81702 -962.44458
994.66028 8.24769 -954.65057
1000.14001 18.39920 -906.50702
1018.31335 5.22188 -906.39374
988.12097 6.69055 -914.21436
1026.04004 12.39970 -962.29700
1030.59839 5.32309 -948.38800
1014.38000 20.49920 -906.54199
1033.68994 11.08720 -958.88501
997.40997 16.96090 -906.55103
1025.95996 5.98020 -946.60626
1027.00000 4.97073 -932.42902
1025.58997 18.04543 -953.64667
993.49597 14.26900 -913.17200
1033.71497 20.08270 -959.80377
997.35999 5.17631 -906.32703
1010.43066 10.82800 -933.47046
1017.62061 12.07010 -933.11041
1025.96130 12.10310 -942.12238
1014.44000 20.38280 -907.63702
1025.95996 14.56083 -958.92871
1035.47498 8.51319 -932.03003
1030.85999 6.11172 -932.30902
1011.79755 12.10310 -962.68011
1015.28003 8.51355 -906.60699
996.35199 18.42545 -911.85699
1018.14001 18.42925 -907.54950
1003.81000 6.54355 -913.11700
1033.73999 8.81820 -959.50500
1025.98999 10.60288 -954.19989
991.05615 8.61298 -933.54059
1025.91504 16.92740 -921.41699
1028.03003 5.61517 -957.44598
1018.17499 7.10421 -910.47699
988.07904 11.13433 -921.05200
994.67700 11.01900 -959.22723
1018.17999 9.02254 -911.12695
988.14502 16.50745 -961.54199
1027.98596 4.94893 -932.03003
999.23999 8.96461 -906.53455
999.26501 10.72890 -906.45697
1004.98999 17.37820 -944.30200
998.26050 17.67955 -906.51050
1011.80145 15.70810 -962.44415
1017.23499 18.11520 -906.51300
1018.37994 3.90146 -908.18390
1000.99500 9.68295 -933.26898
1025.70996 5.23019 -929.03900
999.28998 15.49200 -906.53198
996.34601 18.31050 -906.85449
1001.16113 15.70810 -962.37634
1032.41003 20.51050 -957.63098
1018.13000 18.19420 -910.77698
994.67700 11.02760 -962.65900
1033.71497 18.67470 -961.39600
1025.60754 9.77798 -913.04321
1010.79700 14.63510 -962.67029
995.58325 11.01900 -962.67999
1025.58997 8.00940 -955.17621
1005.99762 17.05810 -962.38251
988.12097 6.08448 -916.13159
1027.33997 12.17117 -958.34167
1016.48999 9.04417 -962.36499
989.07660 8.02904 -933.54901
1030.16003 7.68084 -962.82501
1004.91998 7.87544 -944.33197
988.12097 4.87498 -920.50897
1006.64337 15.67093 -933.10999
1029.54004 6.01788 -957.67151
1018.25000 10.71220 -910.45203
1018.16003 18.46675 -908.97699
1001.18365 17.48053 -948.10992
997.87402 9.68357 -933.38147
1031.22998 20.32900 -962.60699
1025.98999 11.10754 -956.81775
996.37903 18.57925 -909.33698
996.28998 6.19021 -911.82703
1000.21002 12.25360 -962.69000
1027.28003 9.28629 -962.23029
996.35400 18.47675 -912.69702
1026.37073 6.77698 -913.18854
1027.82837 8.02731 -932.02893
1015.22998 8.51355 -906.45697
1025.95996 11.04441 -951.42145
1014.28998 20.28800 -906.60699
1015.53998 12.40270 -932.90900
1033.68994 11.61302 -961.05499
1021.35504 10.34600 -913.12701
1033.79004 18.71440 -957.57501
1016.00677 11.86756 -941.16107
1005.73499 13.40020 -932.85901
1019.68396 6.89498 -941.16101
1018.15997 18.31675 -910.05695
988.10785 15.75610 -929.60138
1008.37781 10.75562 -933.54901
988.11456 10.38900 -921.65118
1027.54004 18.30820 -961.32501
988.07117 12.51967 -922.53198
1025.73999 17.00280 -927.92554
1032.43994 12.49720 -932.27563
1018.42999 11.00240 -913.17200
1031.67993 19.13985 -962.57751
1035.47095 5.97787 -941.16199
996.16101 9.49827 -909.60797
989.56934 7.47723 -933.54895
988.99701 15.22780 -913.14801
1015.28003 11.71305 -906.51050
1000.17249 20.21767 -906.83948
996.36804 18.87300 -907.54950
988.09149 12.79794 -917.52008
1001.52527 8.52898 -962.68304
1000.66022 6.62450 -962.65900
1000.18304 10.20754 -933.51892
996.34222 19.56703 -910.77698
997.40997 7.90477 -906.50800
1033.73755 17.25203 -960.12201
1015.83099 15.70810 -962.67706
1025.83997 18.05637 -924.66626
1025.95996 5.94198 -941.16101
999.23999 12.33490 -906.60699
1000.09625 7.80564 -949.34033
1018.13000 19.03550 -912.24750
988.11560 8.49898 -924.62158
1016.26001 17.95170 -906.53455
996.38873 13.23855 -910.80200
1017.54999 18.56770 -906.53455
988.09741 7.37698 -915.20593
1027.28003 17.87185 -962.24353
1000.13745 19.54702 -908.20074
1025.98242 17.03810 -956.66901
1000.35999 10.80943 -913.51703
997.60400 17.65240 -906.52954
1015.44000 15.84840 -906.52954
1002.85999 14.95817 -946.43164
985.45520 11.46177 -933.67401
1001.34570 10.46743 -913.11700
1014.15997 15.23557 -912.14703
1025.96240 13.35210 -958.07428
1025.98999 14.27135 -942.57910
994.67700 9.08081 -960.69800
994.17395 13.97177 -933.14008
1025.95996 13.43810 -948.43567
1033.68994 16.30902 -960.12201
1014.28998 18.55740 -906.45697
1000.35999 10.21550 -913.11700
1024.52222 12.10310 -962.68860
993.19598 12.73580 -932.88794
1023.72333 5.66150 -962.41003
1018.09998 8.90821 -911.82703
1018.32336 13.31120 -933.11163
1010.33331 4.56171 -913.24701
1031.21997 20.34203 -957.67029
991.87097 3.79898 -933.14899
1016.01624 13.50754 -962.69000
998.82434 11.10500 -962.68451
1025.95996 10.38876 -960.77869
1000.17999 18.52420 -907.50452
997.14691 7.30325 -906.72693
996.34100 5.43404 -911.77698
1015.28003 9.39788 -906.52954
1015.40997 12.10740 -962.28998
1027.17004 16.88321 -941.16199
1016.54999 8.52468 -962.65900
1032.78772 18.02358 -940.74200
1026.35999 6.70019 -924.50739
986.44202 15.09529 -931.27258
1033.70996 6.75404 -959.81500
997.40997 15.50890 -906.55103
998.91699 17.88272 -906.55225
1015.28003 6.14187 -906.53455
997.40997 10.79490 -906.60699
1033.73999 9.34620 -960.74500
999.75562 7.80496 -949.68164
1000.13000 19.09050 -907.83698
1027.60669 4.74758 -957.71167
1026.29004 9.09817 -915.89453
1027.30493 11.84970 -962.29700
1025.74756 12.10720 -945.84296
1020.44476 14.74335 -962.28998
1033.71497 16.78270 -958.84900
997.40997 11.52090 -906.60699
1026.41003 14.69314 -915.03839
1020.36523 14.80307 -940.76105
1014.65503 18.20973 -906.50922
1000.16998 18.06550 -907.83698
1025.95996 14.36485 -925.48901
1000.15503 19.40750 -911.44702
1032.46667 6.09984 -932.30902
1010.50500 16.91340 -941.04102
982.73413 8.24517 -931.82819
1012.23999 5.98417 -962.40997
994.67200 4.15698 -962.17126
996.36499 18.12740 -906.50702
1027.72668 5.22188 -957.83167
1018.17999 19.62615 -906.51874
1025.62000 12.11240 -956.66302
1033.70239 17.58095 -959.16724
1009.38000 14.53610 -932.73999
1025.58997 13.08567 -940.90485
981.70697 11.76115 -932.89301
1000.55115 3.84878 -962.53497
1031.47900 11.06620 -941.16101
1000.35999 5.53400 -909.12549
1030.20764 3.93754 -948.38800
1010.83417 17.06162 -962.69000
1025.96753 15.70810 -926.23645
1025.98999 6.22048 -932.40234
1033.72998 15.88150 -959.80371
1024.85999 15.70810 -962.38245
1033.68994 10.11050 -961.36499
1002.54407 11.10500 -962.67401
1017.10999 8.07354 -906.60699
988.11157 12.15610 -929.15295
1025.98999 16.80230 -944.77728
1026.35999 6.70327 -916.49670
1033.71509 18.73640 -962.66998
1025.98999 10.30294 -958.89313
1018.17999 18.59400 -906.45697
1010.70996 7.98098 -913.13843
1004.94684 14.54910 -962.67450
1026.37073 10.30300 -923.56494
988.09204 15.11900 -918.48547
1009.28998 12.77280 -962.43201
1025.95996 11.04832 -943.11536
1000.17999 18.98490 -906.55103
1029.56055 18.02882 -940.73102
1027.56006 18.71060 -962.67499
1012.72833 4.17084 -962.56000
999.74451 7.80834 -949.67004
998.26050 18.21570 -906.53455
995.30499 15.48460 -933.14001
1018.16748 18.82545 -911.85699
996.99402 9.67317 -952.62201
1000.16003 20.03670 -907.83698
1018.14001 18.87925 -909.69702
996.35828 19.12887 -911.95203
1025.83997 16.37280 -952.53802
1033.64001 19.88040 -962.64502
1025.95496 12.04280 -918.66901
996.38873 18.88768 -908.25696
1025.90173 18.02810 -948.06818
996.38501 19.59420 -907.89697
988.08295 14.73814 -916.50299
998.83038 15.67045 -933.10999
1014.38501 20.14485 -908.14374
1025.75696 9.14878 -930.19958
1025.95996 14.55496 -957.96832
997.40997 5.00654 -906.52954
1011.20282 7.98098 -913.13202
996.34100 19.91920 -907.54950
1017.97998 6.71304 -907.91632
1024.75244 12.33310 -962.28998
1018.17499 16.96240 -910.42700
1029.46301 3.79898 -940.88104
994.66010 12.10310 -962.67688
993.44897 13.27122 -958.11865
988.50201 15.75865 -961.18500
1025.95996 10.38630 -955.59796
1033.68994 6.86321 -959.50500
988.09100 8.74269 -927.88611
1025.85999 3.82317 -949.74835
1025.98999 17.33860 -955.51349
1025.95251 13.35240 -924.16498
1007.72998 6.03498 -962.47400
1015.95001 11.10850 -962.69550
1000.22998 20.47180 -907.03650
1014.51001 18.32810 -932.73999
1004.17798 4.59399 -945.11450
1019.59186 11.56676 -962.28998
1026.43848 13.45169 -919.58197
1025.70996 9.09417 -950.82599
995.04700 7.30245 -959.48535
1025.58997 13.43365 -949.40173
1003.41998 16.66540 -932.85901
1018.15747 5.42487 -911.77698
1033.73242 18.03968 -958.54297
1016.19000 11.25840 -906.55103
1026.57996 13.30591 -941.16199
999.23999 11.73280 -906.50800
988.05701 10.56490 -919.51746
1004.79565 7.89498 -913.13947
997.40997 5.47371 -906.51050
1032.43994 12.93113 -932.29102
1025.88086 11.10870 -945.48358
988.09100 16.99874 -918.00165
996.38501 19.79420 -909.82397
1027.32996 16.62740 -962.14697
987.46582 18.01202 -961.82623
1003.07153 10.24900 -933.54205
1000.57465 8.40291 -949.13159
1025.98999 16.97940 -962.14697
1016.78363 14.63285 -933.14001
1016.23999 3.79817 -962.52246
1013.74658 11.18639 -962.69000
1018.19250 15.43255 -911.77698
1018.25000 12.23520 -910.45203
999.28998 15.49200 -906.45697
1033.73999 18.07740 -957.57501
1018.25000 13.07120 -911.82703
1025.58997 7.21146 -962.31213
1025.98999 10.30292 -950.89063
1021.11914 7.15110 -941.16101
1018.09998 6.64221 -911.77698
1017.10999 11.78205 -906.55353
1010.63013 6.55098 -962.66095
986.84198 12.96367 -934.07507
996.43433 12.23825 -913.49701
1000.08002 18.18240 -906.45697
1025.98999 8.13848 -950.89856
1010.45093 6.63698 -962.68542
988.10388 4.35698 -930.81329
996.65601 20.32390 -906.50800
988.09192 11.62493 -917.52039
1028.36499 11.38580 -941.16199
1027.33997 5.20365 -962.37671
1001.44867 7.80258 -947.96326
986.71338 14.79933 -962.57770
988.12097 9.69612 -928.32471
1025.96143 7.23198 -947.02405
1025.95996 6.57030 -949.95569
1029.04004 9.71517 -932.29651
996.44000 18.07740 -906.50702
1005.04749 9.76622 -963.12854
998.58875 19.06638 -906.55481
1033.68994 9.54720 -961.05499
1006.27429 9.69198 -913.11914
1014.15997 5.17631 -908.65619
1011.06000 13.03770 -932.90900
1033.73755 6.39604 -961.05499
1025.98999 7.13441 -951.92432
989.35284 8.34212 -963.12500
1034.34998 4.70529 -931.86133
1027.28003 7.12788 -962.24597
1017.15997 10.58150 -906.60699
1025.95996 12.10417 -960.47693
1033.52002 7.20898 -961.71796
994.78033 6.76478 -954.70001
994.37024 10.49714 -933.54901
1004.03998 7.28989 -945.22998
997.60400 15.66995 -906.54523
985.84906 17.09066 -927.67847
1033.79004 9.33237 -961.36499
1033.68994 17.40903 -960.75903
998.32501 11.52530 -906.52954
1014.44000 19.35740 -906.45697
994.64697 6.76423 -956.77600
1033.73499 18.21785 -958.54297
1033.79004 8.21037 -958.88501
1000.13745 18.19703 -909.29199
999.28998 18.00000 -906.60699
1001.83862 8.18584 -913.11707
1027.52502 18.71900 -957.57501
999.78546 15.67102 -933.11005
997.35999 9.45294 -906.53198
1025.98999 11.10786 -941.16101
1028.04004 6.24417 -932.28400
996.34351 18.76485 -907.89697
1033.62671 12.81069 -957.73834
1027.76001 18.90250 -962.52502
1025.95996 15.49030 -919.69952
988.24103 14.66490 -914.54901
988.79675 3.79898 -960.51990
1030.09998 19.98040 -962.60400
986.62213 9.54362 -963.12500
1016.53003 7.20188 -962.65900
1000.22998 20.48470 -906.49799
1018.75000 4.54350 -962.40997
997.60400 19.53815 -906.51874
988.12097 7.95027 -920.16376
1015.54999 13.39020 -932.85901
1013.77747 11.98490 -913.24701
1033.03003 16.55690 -940.88098
996.16101 6.12412 -906.32800
1011.19666 4.57878 -913.37201
1018.16998 18.06050 -909.33698
1016.40503 9.09417 -962.39746
996.44000 18.47740 -913.28601
996.11102 15.75280 -913.12299
987.07727 19.94905 -963.12500
1001.31000 4.90144 -947.98401
1028.07996 6.90604 -957.64746
1019.03497 16.91490 -913.09698
998.32501 10.25310 -906.55603
1001.07495 13.00780 -913.34698
1033.79004 10.80640 -958.83502
996.38623 5.85287 -910.47699
1025.98999 6.89148 -961.69543
1011.78485 14.55313 -962.65997
1020.32330 5.87398 -913.16364
996.34601 12.37540 -910.47699
1025.70996 12.14720 -952.85052
1027.73999 17.07940 -959.06635
1014.35004 18.08045 -907.51880
1025.98438 7.89498 -931.87646
1002.47235 8.12115 -946.94006
1011.52673 17.93000 -933.14001
1029.44800 19.77580 -962.82599
1026.04004 9.65704 -962.20178
1006.92834 11.10850 -962.57428
988.09100 3.79783 -926.60999
1015.61182 18.02810 -962.59625
1033.07507 20.03767 -957.67273
1025.98999 10.30281 -958.42242
987.10217 15.40162 -927.00897
1032.67004 12.46140 -940.88098
1003.57941 12.07010 -933.13873
986.84198 11.44191 -926.62573
1018.19000 16.36925 -911.45203
1027.28003 10.18290 -962.20300
1014.56000 6.70950 -911.71759
1033.72998 13.12150 -959.81500
1026.04004 17.11325 -962.23523
988.09204 13.37120 -920.41565
1032.41003 18.13767 -962.57629
1012.28510 17.05810 -962.49347
988.12097 16.60582 -929.60138
988.09100 9.93952 -914.67670
1000.22998 18.15400 -906.45697
1007.52863 18.05059 -932.73901
1033.68994 6.15921 -960.12500
1010.85254 6.03498 -962.67902
1018.25000 5.36621 -911.82703
1017.64246 14.63510 -962.66797
1016.20667 5.66150 -962.56000
1018.15997 13.74800 -911.77698
996.97418 8.61298 -933.52179
996.20032 17.53190 -933.14001
1018.17999 20.46840 -906.52954
1033.38000 20.68690 -962.62500
988.05402 11.84469 -924.05200
1018.13000 18.64420 -912.92200
1020.23999 6.03417 -962.48499
1030.07996 6.40438 -957.57501
1014.51001 12.66035 -932.92499
