0.13265 0.07250 0.12120
0.09055 0.05580 0.15560
0.15755 0.04210 0.12080
0.13745 0.00950 0.11890
0.07415 -0.00100 0.13010
0.14735 0.04520 0.13150
0.17065 0.02930 0.08180
0.11235 0.08580 0.06450
0.05225 0.00440 0.11730
0.03605 0.07560 0.07380
0.02345 0.00320 0.09590
0.12575 0.04440 0.15460
0.01635 -0.00950 0.08610
0.07435 0.06920 0.13940
0.08895 0.05820 0.15480
0.15165 0.03720 0.12410
0.04205 0.05650 0.12260
0.03395 -0.00230 0.10220
0.11875 0.04910 0.15710
0.10685 0.08160 0.09360
0.04895 0.07480 0.09130
0.07235 0.07630 0.10140
0.08245 0.08660 0.04360
0.07715 0.07550 0.11150
0.07485 0.07820 0.08940
0.09295 0.07470 0.12770
0.05875 0.08130 0.05180
0.12375 0.03540 0.16740
0.04355 0.02340 0.11640
0.07975 0.00060 0.13440
0.06145 0.00970 0.12500
0.13465 0.01140 0.12640
0.12615 0.01400 0.14590
0.02485 -0.00360 0.09510
0.09135 0.07830 0.10560
0.12205 0.07290 0.13300
0.10885 0.08600 0.06640
0.12025 0.07530 0.13270
0.16045 0.03080 0.09980
0.02435 0.07300 0.07760
0.10745 0.07090 0.15130
0.10275 0.04920 0.15890
0.10915 0.00900 0.15540
0.16385 0.02810 0.09110
0.05155 0.07000 0.12080
0.06765 0.07900 0.07700
0.02605 0.07290 0.08030
0.12065 0.08020 0.12460
0.05545 0.07730 0.07930
0.09395 0.08260 0.07330
0.04735 0.07960 0.05410
0.08215 0.03670 0.14600
0.12575 0.02070 0.15410
0.02325 0.03160 0.10410
0.11385 0.04460 0.16960
0.13875 0.08680 0.09360
0.02975 0.07610 0.06260
0.07045 0.06660 0.14090
0.02575 0.06040 0.10910
0.10945 -0.00360 0.15320
0.09405 0.08340 0.06790
0.07555 0.03040 0.14010
0.13215 0.08430 0.09950
0.14965 0.08440 0.09010
0.01115 0.00780 0.08710
0.02705 0.04140 0.10920
0.10235 0.04650 0.15940
0.06045 0.00340 0.12260
0.14205 0.08790 0.08880
0.10935 0.02030 0.15850
0.05255 0.07950 0.06050
0.10455 0.08610 0.05180
0.02875 0.03410 0.10870
0.08215 0.06580 0.15000
0.09595 0.08500 0.05640
0.07005 0.00180 0.12840
0.03515 0.06380 0.11770
0.00835 0.04660 0.09710
0.16865 0.05510 0.09700
0.11955 0.08540 0.07270
0.06905 0.07260 0.12160
0.16885 0.02810 0.08350
0.03475 0.04540 0.11550
0.10695 0.08470 0.06790
0.00705 -0.00580 0.08490
0.15345 0.05960 0.11090
0.11505 -0.00150 0.15060
0.12665 0.00610 0.13580
0.11895 0.06690 0.14210
0.11975 0.08330 0.09240
0.12855 0.06050 0.13740
0.06375 0.06020 0.13790
0.00955 0.06150 0.10060
0.10835 0.05700 0.16360
0.02545 0.07040 0.09820
0.10035 0.08360 0.07240
0.03995 0.05780 0.12130
0.13025 0.04660 0.14820
0.07545 0.08310 0.05340
0.09685 0.03470 0.15470
0.07905 0.03100 0.14250
0.13285 0.01540 0.13410
0.05895 0.05950 0.13300
0.08285 0.03390 0.14570
0.02095 -0.00700 0.09100
0.04165 0.07480 0.08430
0.09365 0.03380 0.15250
0.03105 0.02130 0.10710
0.14575 0.08750 0.09370
0.11515 0.07870 0.12450
0.05825 0.01320 0.12380
0.11265 0.08290 0.09190
0.06345 0.07450 0.10540
0.06255 0.08070 0.06050
0.10985 0.08580 0.05640
0.09735 0.08350 0.07050
0.11195 -0.00220 0.15290
0.13675 0.08590 0.09830
0.09375 0.04710 0.15560
0.01865 0.07060 0.09100
0.00555 0.04040 0.09290
0.11795 0.02460 0.16580
0.17535 0.05210 0.08920
0.13875 0.06710 0.12070
0.06845 0.01080 0.12980
0.15625 0.04020 0.11920
0.13185 0.00450 0.12390
0.01545 -0.00190 0.08790
0.05835 0.04160 0.13120
0.11275 0.08210 0.09570
0.11915 0.07940 0.12820
0.16535 0.02740 0.08780
0.07415 0.07470 0.11330
0.11895 0.07830 0.13130
0.08245 0.07910 0.09160
0.11735 0.02140 0.16300
0.00595 0.01370 0.08670
0.00655 0.02470 0.08890
0.02045 0.05810 0.10750
0.10775 0.02960 0.15940
0.16445 0.03980 0.10300
0.13365 0.01380 0.13090
0.05935 0.07940 0.06790
0.02815 0.02000 0.10440
0.03185 -0.00040 0.10140
0.14915 0.05450 0.12040
0.12465 0.07020 0.13300
0.15385 0.07100 0.09900
0.17725 0.04900 0.09380
0.06225 0.07180 0.11960
0.00185 0.04960 0.09320
0.16655 0.05580 0.09890
0.13685 0.06920 0.12000
0.15765 0.03110 0.10570
0.10605 0.07530 0.13850
0.00745 0.03250 0.09170
0.11925 0.08530 0.07550
0.05135 0.08640 0.02480
0.09295 0.00080 0.14350
0.12935 0.08560 0.08210
0.02025 0.00910 0.09470
0.02595 0.07420 0.07220
0.16125 0.04370 0.11570
0.05455 0.07660 0.08350
0.12515 0.02800 0.16280
0.06885 0.08360 0.02570
0.11955 0.02940 0.16790
0.14685 0.02260 0.11650
0.03545 0.03530 0.11390
0.13205 0.01130 0.13120
0.12975 0.02840 0.16180
0.05005 0.04180 0.12550
0.11415 0.05090 0.16220
0.08405 0.02410 0.14410
0.09275 0.06030 0.15760
0.02995 0.01140 0.10320
0.04845 0.03830 0.12360
0.10015 0.00180 0.14850
0.05745 0.08250 0.02430
0.14995 0.05020 0.12320
0.15235 0.02800 0.11280
0.01625 0.06370 0.10470
0.05345 0.06020 0.13090
0.11315 0.05570 0.15890
0.01165 0.01590 0.09020
0.12655 0.08210 0.11150
0.14215 0.08770 0.08430
0.10695 0.07810 0.11680
0.11405 0.04660 0.16420
0.12755 0.02500 0.15520
0.08205 0.07830 0.09730
0.14525 0.05710 0.12240
0.00795 0.06910 0.09000
0.01765 0.04590 0.10360
0.15275 0.04920 0.12130
0.05615 0.06390 0.12870
0.11955 0.08620 0.06530
0.11655 0.01470 0.16720
0.12675 0.01200 0.14260
0.09735 0.04770 0.15770
0.07335 0.07240 0.12570
0.08835 0.07290 0.13310
0.07195 0.08310 0.04990
0.02115 0.00520 0.09450
0.11605 0.01350 0.16400
0.05185 0.08300 0.03160
0.09935 0.08190 0.08570
0.14185 0.09050 0.09340
0.05035 0.08250 0.03390
0.00795 0.02980 0.09120
0.13615 0.08590 0.09480
0.03325 0.05910 0.11630
0.02915 0.07130 0.09620
0.06255 0.07950 0.07030
0.01665 0.00960 0.09220
0.04545 0.04980 0.12390
0.12515 0.07780 0.12500
0.08715 0.00210 0.13980
0.11575 0.05620 0.15380
0.10425 0.03450 0.15870
0.11455 0.05870 0.15410
0.09375 0.07500 0.12480
0.13595 0.06630 0.12360
0.01745 -0.00030 0.09000
0.09865 0.01230 0.15030
0.14635 0.06090 0.11770
0.17075 0.03720 0.08920
0.11945 0.05160 0.15550
0.09895 0.07390 0.15010
0.13765 0.05810 0.12970
0.04525 -0.00690 0.10900
0.09415 0.08180 0.08150
0.14815 0.02210 0.11360
0.13565 0.06420 0.12590
0.06135 0.08240 0.04560
0.05595 0.04980 0.13120
0.14505 0.02910 0.12640
0.17485 0.04870 0.08970
0.02655 0.05870 0.11170
0.07445 0.07620 0.10350
0.09485 0.08710 0.04770
0.08715 0.08240 0.07020
0.06805 0.07460 0.10840
0.11965 0.05400 0.15300
0.01415 0.05370 0.10280
0.11415 0.08220 0.09810
0.06045 0.05070 0.13440
0.10295 0.07380 0.14190
0.02315 0.05790 0.10980
0.15165 0.01820 0.10330
0.05825 0.07600 0.09050
0.13945 0.08470 0.10180
0.09235 0.05020 0.15550
0.11885 0.01200 0.15750
0.03365 -0.00510 0.10100
0.14885 0.09020 0.08240
0.03665 0.00900 0.10770
0.11665 0.08310 0.09050
0.03165 -0.00320 0.10040
0.06795 0.03660 0.13670
0.13055 0.08020 0.11740
0.04175 0.06090 0.12300
0.15975 0.07130 0.09180
0.01745 -0.00320 0.08930
0.12185 0.08090 0.12140
0.03235 0.07910 0.04970
0.15305 0.08900 0.08050
0.12095 0.05790 0.14780
0.09355 0.00330 0.14450
0.14485 0.02700 0.12440
0.10825 0.03840 0.16190
0.06525 0.06230 0.13910
0.13535 0.00610 0.11910
0.08115 0.07610 0.11000
0.13395 0.02760 0.14610
0.00635 0.06830 0.09230
0.10915 0.04500 0.16330
0.12635 0.08610 0.08430
0.16725 0.03720 0.09500
0.05195 0.07980 0.05700
0.11415 0.06110 0.15150
0.10645 0.08210 0.09080
0.06955 0.07080 0.13090
0.10975 0.06000 0.15720
0.14505 0.01750 0.11420
0.11235 0.01510 0.15890
0.09915 0.07910 0.10640
0.14975 0.06990 0.10490
0.04045 0.07710 0.06670
0.04705 0.06060 0.12560
0.09045 0.01640 0.14600
0.02305 0.07610 0.06310
0.10805 0.08260 0.08860
0.10855 0.04870 0.16090
0.17185 0.04980 0.09900
0.14165 0.00770 0.10940
0.09345 0.07190 0.14400
0.02115 0.07300 0.07570
0.16755 0.04630 0.10500
0.12475 0.08020 0.12240
0.02195 0.06320 0.10560
0.12135 0.01040 0.15110
0.03635 0.07050 0.10600
0.07085 -0.00160 0.12780
0.16445 0.05740 0.10150
0.06375 0.07920 0.07330
0.03835 0.04350 0.11760
0.05565 0.00320 0.11920
0.09215 0.07140 0.15760
0.00875 0.03410 0.09380
0.09235 0.03650 0.15230
0.14575 0.01640 0.11170
0.10705 0.08040 0.10460
0.05575 -0.00310 0.11730
0.08415 0.08510 0.04070
0.05805 0.08040 0.05740
0.03875 0.07050 0.10840
0.15485 0.06190 0.10690
0.08415 0.07140 0.13990
0.13235 0.06990 0.12410
0.04645 0.07310 0.09950
0.13825 0.07390 0.11390
0.06465 0.07310 0.11420
0.11635 0.03570 0.16650
0.07135 0.07390 0.11540
0.02105 0.04650 0.10620
0.06185 0.06850 0.13460
0.00795 0.05990 0.09780
0.04145 0.00230 0.10920
0.09035 0.04900 0.15400
0.09695 0.05690 0.15940
0.11565 0.03730 0.16360
0.02245 0.02920 0.10250
0.11065 0.05530 0.16250
0.03875 0.04060 0.11730
0.13875 0.01880 0.12700
0.13345 0.08290 0.11040
0.17295 0.04160 0.09020
0.05205 0.06950 0.12350
0.08375 -0.00120 0.13650
0.02285 0.07220 0.08350
0.11015 0.07910 0.11130
0.05465 0.05230 0.13070
0.13325 0.01800 0.13680
0.10335 0.01020 0.15240
0.02005 0.02810 0.10060
0.02725 0.05570 0.11220
0.04625 0.01640 0.11640
0.07865 0.08380 0.03210
0.06265 0.05620 0.13690
0.12145 0.07760 0.12890
0.09365 0.07770 0.11060
0.09855 -0.00010 0.14580
0.04515 0.02540 0.11810
0.16255 0.03780 0.10370
0.06505 0.04120 0.13600
0.13875 0.07750 0.11170
0.07795 0.06980 0.14240
0.14525 0.04750 0.13120
0.06135 0.04360 0.13380
0.05545 0.06970 0.12560
0.12675 0.05030 0.14790
0.12305 0.02860 0.17000
0.14355 0.01800 0.11740
0.04625 0.08060 0.04220
0.16435 0.05360 0.10390
0.06035 0.08400 0.02140
0.11195 0.03780 0.16260
0.03535 -0.00730 0.10170
0.14605 0.00930 0.10320
0.10105 0.08520 0.05610
0.04435 0.06970 0.11650
0.09625 0.07160 0.15320
0.05985 0.08270 0.04070
0.14595 0.08210 0.09700
0.14835 0.04980 0.12540
0.12435 0.01190 0.14680
0.08595 0.08080 0.08220
0.14875 0.08720 0.08930
0.01985 0.01720 0.09750
0.12425 0.08450 0.08530
0.13905 0.01030 0.11680
0.06485 0.06990 0.13250
0.07215 0.02460 0.13640
0.12255 0.01930 0.15910
0.15145 0.03160 0.11760
0.11625 0.05020 0.15920
0.05195 0.01690 0.12060
0.01665 0.06950 0.09560
0.04875 0.08220 0.03110
0.11005 0.08180 0.09320
0.15805 0.05710 0.10780
0.07355 -0.00340 0.12850
0.16475 0.02410 0.08530
0.16535 0.03440 0.09510
0.07655 0.07310 0.12480
0.00335 0.03870 0.09110
0.03615 0.07740 0.05920
0.05915 0.04470 0.13230
0.09155 0.07140 0.14600
0.10785 0.06080 0.16060
0.03405 0.05100 0.11610
0.02865 0.06820 0.11160
0.05725 0.03920 0.12980
0.02365 0.06040 0.11110
0.03245 0.00980 0.10480
0.01605 0.02670 0.09730
0.05665 0.08270 0.01490
0.04245 0.07350 0.09560
0.14465 0.03450 0.13360
0.03795 0.02440 0.11280
0.11545 0.07260 0.14070
0.12315 0.02620 0.16530
0.15525 0.02300 0.10150
0.09445 0.04320 0.15510
0.05455 0.08340 0.03100
0.07545 0.08350 0.05020
0.12185 0.03090 0.16840
0.09285 0.07210 0.16190
0.12245 0.08630 0.07560
0.14025 0.05700 0.12770
0.06445 0.00010 0.12420
0.06315 0.07490 0.10250
0.06375 0.02570 0.13090
0.07335 0.03360 0.13980
0.15365 0.02320 0.10490
0.13265 0.08560 0.08500
0.07775 0.05360 0.14670
0.06335 0.01970 0.12900
0.09385 0.07140 0.14820
0.11125 0.01140 0.15750
0.14005 0.00750 0.11220
0.05575 0.07140 0.11720
0.08425 0.00250 0.13800
0.11245 0.07360 0.14300
0.03755 0.06370 0.11940
0.15255 0.01760 0.10050
0.17565 0.05600 0.09200
0.11495 -0.00010 0.15890
0.11825 0.08600 0.06280
0.10965 0.02740 0.16010
0.13585 0.07340 0.11760
0.04585 0.07350 0.09680
0.04845 0.07520 0.08840
0.01195 0.06690 0.10120
0.13595 0.02620 0.14090
0.01655 0.04320 0.10220
0.12535 0.08440 0.08890
0.10745 -0.00340 0.15130
0.11425 0.06410 0.14840
0.01765 0.02390 0.09770
0.11845 0.01430 0.16290
0.06655 0.08070 0.06420
0.02015 0.06630 0.10600
0.10685 0.07600 0.14360
0.02205 0.02540 0.10140
0.03595 0.07360 0.08600
0.04045 0.01520 0.11220
0.09355 0.07100 0.15250
0.16955 0.04690 0.10090
0.03925 0.07500 0.08120
0.12675 0.08610 0.07540
0.05295 0.05660 0.13010
0.04135 0.08180 0.03700
0.03095 0.01360 0.10470
0.04945 0.07010 0.11870
0.12535 0.06340 0.13800
0.03075 0.01770 0.10570
0.08435 0.06910 0.14900
0.13355 0.03300 0.15610
0.04505 0.05660 0.12380
0.16735 0.02840 0.08580
0.14615 0.04170 0.13540
0.12815 0.06610 0.13270
0.15935 0.02460 0.09520
0.08815 0.08000 0.08950
0.16545 0.02170 0.08160
0.11275 0.03430 0.16360
0.03115 0.07670 0.06000
0.11725 0.05230 0.15750
0.12685 0.08560 0.08070
0.09425 0.07840 0.10580
0.09375 0.02210 0.14950
0.09045 0.08550 0.04110
0.02645 0.02550 0.10440
0.07505 0.04110 0.14240
0.12255 0.08170 0.10400
0.10015 0.08380 0.06920
0.09005 0.08290 0.06970
0.10285 0.06580 0.16140
0.04365 0.01540 0.11440
0.14145 0.03460 0.13970
0.11945 0.00790 0.15190
0.06435 0.01690 0.12900
0.07895 0.08220 0.06380
0.07225 0.01810 0.13480
0.12005 0.04110 0.16530
0.15065 0.08660 0.08730
0.11785 0.08040 0.11760
0.12955 0.02560 0.15240
0.05475 0.07930 0.06290
0.04155 0.07200 0.10280
0.12415 0.04990 0.15120
0.05725 0.08090 0.05480
0.08085 0.05740 0.14920
0.00865 0.02300 0.08970
0.05045 0.06440 0.12840
0.10235 0.06240 0.16210
0.09815 0.01850 0.15120
0.13815 0.07140 0.11650
0.14865 0.05900 0.11690
0.04475 0.05920 0.12490
0.04475 0.06240 0.12200
0.07765 0.05710 0.14710
0.05945 0.07540 0.09510
0.07445 0.07680 0.09970
0.06285 -0.00210 0.12250
0.12735 0.01650 0.14660
0.13105 0.08630 0.10840
0.15985 0.02330 0.09270
0.14075 0.06270 0.12200
0.08535 0.07310 0.13410
0.16535 0.03220 0.09280
0.08945 0.07630 0.11580
0.08465 0.06720 0.15120
0.14765 0.02550 0.11810
0.03135 0.06840 0.11310
0.02415 0.04570 0.10830
0.11065 0.07690 0.13940
0.16525 0.06930 0.08530
0.09585 -0.00460 0.14390
0.17175 0.03280 0.08300
0.10695 0.07490 0.14730
0.07215 0.08130 0.06430
0.08355 0.03120 0.14550
0.09535 0.06740 0.16270
0.09705 0.02180 0.15130
0.08495 0.07800 0.10200
0.10555 0.07500 0.14120
0.06125 -0.00430 0.12060
0.16215 0.06390 0.09840
0.01125 0.07160 0.08030
0.07595 0.07580 0.10810
0.12445 0.08550 0.07760
0.12295 0.07500 0.13010
0.11515 0.08590 0.06210
0.05435 0.08200 0.04100
0.15735 0.04460 0.11920
0.05205 0.08340 0.02860
0.07675 0.07070 0.13840
0.11005 0.04920 0.16910
0.04285 0.00530 0.11090
0.05945 0.02380 0.12750
0.11405 0.08070 0.10290
0.14525 0.06650 0.11340
0.04915 0.07560 0.08560
0.04515 0.00850 0.11340
0.15235 0.05180 0.11930
0.09735 0.08390 0.06570
0.03555 0.06000 0.11830
0.06005 0.04710 0.13350
0.12165 0.00560 0.14470
0.03325 0.01560 0.10710
0.05095 0.06530 0.12480
0.06495 0.00810 0.12680
0.11185 0.08530 0.06760
0.17175 0.05760 0.08940
0.02605 0.06530 0.10870
0.02155 0.06960 0.09940
0.14045 0.02550 0.13120
0.15925 0.06400 0.09970
0.10995 0.08480 0.07040
0.15355 0.03440 0.11740
0.08915 0.03420 0.14960
0.07295 0.08370 0.05890
0.04275 0.07060 0.11080
0.10625 0.04750 0.16250
0.14155 0.05450 0.12870
0.01845 0.00740 0.09280
0.04205 0.04920 0.12120
0.17135 0.05850 0.09270
0.17465 0.06200 0.08770
0.04795 0.07960 0.05030
0.08965 0.01060 0.14380
0.01855 0.06200 0.10440
0.15805 0.05450 0.11050
0.09755 0.07280 0.15530
0.12965 0.05680 0.13970
0.06275 0.04650 0.13530
0.09955 0.07600 0.12330
0.02615 0.07560 0.06340
0.10295 0.03700 0.15850
0.11765 0.00500 0.15240
0.07085 0.07020 0.13410
0.02565 0.07640 0.05990
0.11185 -0.00330 0.15560
0.14045 0.00970 0.11390
0.16265 0.05980 0.09980
0.00845 0.05690 0.09930
0.16105 0.01970 0.08700
0.02635 0.07260 0.08330
0.11605 0.07910 0.13010
0.07245 0.08360 0.04660
0.14175 0.01530 0.11710
0.10635 0.06930 0.15330
0.16985 0.06620 0.08730
0.10725 0.00630 0.15380
0.09805 -0.00360 0.14580
0.08025 0.06360 0.14940
0.06685 0.07060 0.12980
0.05595 0.04230 0.12990
0.01295 0.00040 0.08630
0.03835 -0.00820 0.10360
0.08205 0.08090 0.07750
0.06745 0.05470 0.13980
0.10865 0.05360 0.16350
0.02955 -0.00200 0.09910
0.06295 0.02850 0.13050
0.01285 -0.00990 0.08310
0.03435 0.07930 0.04740
0.09605 0.08170 0.08410
0.09045 0.07970 0.09510
0.15085 0.08470 0.08340
0.07105 0.07520 0.10760
0.13065 0.04390 0.15080
0.10065 0.08040 0.09780
0.01255 0.07090 0.08270
0.05245 0.07520 0.09210
0.09755 0.07660 0.12150
0.10675 0.08580 0.05730
0.13235 0.05150 0.14110
0.10445 0.07170 0.15360
0.11795 0.02230 0.16910
0.05365 0.02390 0.12370
0.03365 0.05380 0.11620
0.05645 0.08100 0.04990
0.06855 0.06500 0.13960
0.11735 0.06540 0.14460
0.05685 0.08420 0.02220
0.04705 0.07020 0.11640
0.03605 0.04140 0.11560
0.05975 0.05670 0.13480
0.01855 0.03490 0.10160
0.15205 0.07030 0.10150
0.12715 0.05900 0.14030
0.13935 0.06870 0.11770
0.06575 0.08400 0.03340
0.02775 0.02880 0.10660
0.08675 0.06070 0.15360
0.11215 0.08640 0.05910
0.06135 0.07800 0.07970
0.06495 0.05740 0.13850
0.15595 0.02130 0.09820
0.08415 0.07960 0.08930
0.13545 0.05000 0.13960
0.03385 0.07670 0.06080
0.11915 0.02660 0.16740
0.07125 0.04970 0.14170
0.15785 0.01420 0.08670
0.12605 0.06620 0.13500
0.05145 0.03580 0.12510
0.07005 0.05430 0.14150
0.09645 0.07270 0.13940
0.02975 0.05510 0.11360
0.15995 0.06820 0.09420
0.10565 0.04080 0.16090
0.03775 0.02710 0.11340
0.16225 0.05420 0.10580
0.15575 0.06350 0.10470
0.12425 0.04320 0.15680
0.09035 0.07050 0.15250
0.05815 -0.00700 0.11780
0.14315 0.02940 0.13070
0.12945 0.06280 0.13440
0.05715 0.02350 0.12590
0.09245 0.07320 0.13720
0.11585 0.07870 0.12040
0.11295 0.07790 0.12870
0.07295 0.03080 0.13860
0.07365 0.07380 0.11730
0.06055 0.01340 0.12540
0.04015 0.07410 0.08670
0.14915 0.06410 0.11140
0.12315 0.01260 0.14980
0.08695 0.07130 0.14080
0.12445 0.03080 0.16530
0.10655 0.02030 0.15680
0.15315 0.02090 0.10310
0.08315 0.07800 0.09980
0.14775 0.03160 0.12410
0.07965 0.07200 0.13200
0.03945 0.07960 0.04590
0.12765 0.03470 0.16540
0.05205 0.07750 0.07480
0.11845 0.08640 0.06990
0.04255 0.07990 0.04440
0.11765 0.00040 0.14710
0.06325 0.01230 0.12690
0.12695 0.02420 0.15960
0.14385 0.09000 0.08720
0.09735 0.00770 0.14830
0.07055 0.08450 0.03360
0.10335 0.08670 0.06390
0.12915 0.01400 0.14000
0.01405 0.07190 0.07880
0.04475 0.07940 0.05260
0.11685 0.06250 0.14840
0.05355 0.08120 0.04470
0.11725 0.03240 0.16680
0.14605 0.03450 0.13110
0.06325 0.08140 0.05680
0.03305 0.06580 0.11300
0.15495 0.03060 0.11090
0.09845 0.08230 0.08170
0.13695 0.00620 0.11650
0.03815 0.07610 0.07210
0.03025 0.03090 0.10900
0.01145 0.04370 0.09780
0.07595 0.07930 0.08340
0.12085 0.01730 0.16020
0.11085 -0.00100 0.15990
0.06805 0.08440 0.03490
0.12475 0.06010 0.14220
0.13775 0.02030 0.13080
0.04795 0.06430 0.12630
0.02315 0.07160 0.08620
0.07335 0.07050 0.13620
0.03035 0.00230 0.10090
0.17185 0.05140 0.09020
0.11025 0.07880 0.11530
0.14615 0.08760 0.09090
0.04515 0.03020 0.11930
0.09005 0.08350 0.06300
0.11715 0.05920 0.15030
0.16775 0.04410 0.10240
0.08675 0.05750 0.15330
0.07915 0.05950 0.14830
0.08205 0.02280 0.14240
0.15865 0.04210 0.11820
0.10025 0.01570 0.15190
0.10785 0.07580 0.13260
0.07165 0.06200 0.14280
0.10445 0.08560 0.05480
0.12265 0.00970 0.14820
0.13865 0.01590 0.12360
0.12265 0.08510 0.08140
0.07495 0.00530 0.13270
0.10285 0.00750 0.15160
0.03565 0.02340 0.11100
0.10475 0.01870 0.15540
0.10655 0.01610 0.15560
0.13965 0.02260 0.12930
0.00375 0.03430 0.09050
0.06595 0.07520 0.10270
0.01065 0.03040 0.09420
0.14225 0.01000 0.11080
0.06115 0.08400 0.02940
0.12275 0.04970 0.15390
0.15985 0.07170 0.08580
0.02975 0.07340 0.08140
0.08145 -0.00180 0.13310
0.03325 0.07400 0.08160
0.02645 0.07180 0.08920
0.10905 0.08040 0.10270
0.10975 0.07650 0.13050
0.05035 0.02520 0.12170
0.15005 0.08650 0.08070
0.09025 0.06980 0.15540
0.04385 0.07200 0.10490
0.15825 0.04040 0.11580
0.11185 0.04910 0.16390
0.11125 0.08080 0.10430
0.10035 0.07380 0.15410
0.10975 0.07990 0.10830
0.12375 0.01570 0.15240
0.09135 0.08020 0.09240
0.05555 0.01560 0.12280
0.13445 0.02060 0.13740
0.04625 0.07070 0.11310
0.14525 0.07830 0.10150
0.06005 0.03890 0.13180
0.02195 -0.00440 0.09260
0.11175 0.04970 0.16700
0.04495 0.04720 0.12300
0.03235 0.04590 0.11390
0.12265 0.03690 0.16350
0.17545 0.05650 0.08920
0.08415 0.05730 0.15140
0.11335 0.07950 0.11280
0.08255 0.04730 0.14870
0.09715 0.07160 0.14900
0.14715 0.01630 0.10900
0.15925 0.04860 0.11530
0.08295 0.01750 0.14140
0.01155 0.07010 0.08600
0.12915 0.02110 0.14920
0.06665 0.03400 0.13540
0.16635 0.05070 0.10520
0.03295 0.00260 0.10310
0.09565 0.02440 0.15130
0.10635 0.06230 0.15850
0.08605 0.08410 0.05390
0.10585 0.08450 0.07070
0.11585 0.07710 0.13560
0.12705 0.07540 0.12510
0.04515 0.07840 0.06240
0.08025 0.04590 0.14680
0.15405 0.01220 0.09150
0.08805 0.03180 0.14850
0.06505 0.05460 0.13820
0.02545 0.05300 0.11050
0.07065 0.08420 0.03660
0.16365 0.06320 0.09500
0.07665 0.07680 0.10190
0.10155 0.07340 0.15670
0.05865 0.01000 0.12320
0.12465 0.07580 0.12760
0.08535 0.02040 0.14390
0.04245 0.01830 0.11430
0.09745 0.07260 0.14350
0.10815 0.06720 0.15340
0.10755 0.07860 0.11380
0.07375 0.07790 0.09190
0.13705 0.08580 0.08970
0.02375 0.02680 0.10310
0.11375 0.04230 0.16210
0.12955 0.00340 0.12740
0.15765 0.08330 0.08280
0.04545 0.06710 0.12330
0.08695 0.08330 0.06260
0.09705 0.03780 0.15550
0.07905 0.01070 0.13710
0.17405 0.04300 0.08810
0.10895 0.08280 0.08500
0.11855 0.07490 0.13510
0.08835 0.06680 0.15070
0.13595 0.03050 0.14530
0.07135 0.05770 0.14290
0.14155 0.01700 0.11960
0.05495 0.03080 0.12630
0.03205 0.04010 0.11240
0.06495 0.03700 0.13490
0.06865 -0.00310 0.12600
0.12285 0.05540 0.14830
0.12775 0.08590 0.07810
0.01975 0.04400 0.10480
0.09115 0.08080 0.08720
0.12045 0.06060 0.14610
0.02145 0.07090 0.09150
0.05895 0.08130 0.04880
0.08085 0.02830 0.14310
0.07665 0.07140 0.13320
0.10205 0.07680 0.12230
0.04215 0.04610 0.12080
0.03785 0.06080 0.12000
0.13575 0.07490 0.11510
0.07125 0.03980 0.13970
0.06665 0.03090 0.13460
0.08685 0.04300 0.15050
0.00405 0.05110 0.09470
0.10235 0.05360 0.15880
0.06945 0.07300 0.11880
0.09675 0.08280 0.07620
0.10165 0.03290 0.15690
0.05625 0.08400 0.01760
0.05485 -0.00740 0.11550
0.16635 0.04170 0.10150
0.04055 0.04200 0.11890
0.15775 0.02880 0.10330
0.12965 0.08620 0.07250
0.10015 0.08470 0.04780
0.01895 0.00370 0.09240
0.10995 0.07300 0.14660
0.01365 0.04350 0.10010
0.11855 0.08240 0.09790
0.03085 -0.00600 0.09900
0.16285 0.06770 0.08790
0.02135 0.01140 0.09650
0.14085 0.07430 0.11240
0.03655 0.07970 0.04510
0.11855 0.08000 0.11390
0.11805 0.08130 0.10340
0.10355 0.01630 0.15410
0.08655 0.07580 0.11700
0.06005 0.08030 0.06230
0.09045 0.03090 0.14980
0.15465 0.07910 0.09000
0.09965 0.00650 0.14940
0.15265 0.07860 0.09250
0.08445 0.07510 0.11890
0.09575 0.07940 0.10070
0.04665 0.07230 0.10500
0.04225 0.07270 0.09890
0.00515 0.05670 0.09690
0.17125 0.04440 0.09590
0.00535 0.05360 0.09640
0.02505 -0.00850 0.09360
0.03455 0.03190 0.11240
0.08185 0.07280 0.12600
0.11725 0.04040 0.16280
0.15085 0.01110 0.09600
0.15825 0.08050 0.08550
0.08495 0.08130 0.07790
0.10975 0.07700 0.12670
0.09365 0.07240 0.13960
0.13835 0.03460 0.14520
0.14975 0.02860 0.11780
0.00475 0.05990 0.09730
0.15815 0.07360 0.09260
0.14675 0.08960 0.08910
0.11565 0.06990 0.14290
0.09805 0.08620 0.06090
0.15125 0.06380 0.10950
0.10305 0.08040 0.09930
0.11255 0.00300 0.15700
0.05035 0.06870 0.12580
0.07305 0.08590 0.03610
0.00735 0.05210 0.09770
0.16025 0.03410 0.10540
0.09095 0.08600 0.06060
0.10515 0.06090 0.16150
0.05535 0.07390 0.10110
0.05445 0.06460 0.13100
0.05195 0.04730 0.12810
0.16435 0.05040 0.10720
0.08725 0.08540 0.04430
0.14515 0.05160 0.12750
0.09295 0.08420 0.05900
0.13545 0.07820 0.11290
0.11955 0.08620 0.08150
0.10525 0.07920 0.10960
0.12825 0.08450 0.09060
0.07135 0.02770 0.13680
0.05595 0.00590 0.12010
0.05135 0.08040 0.05010
0.15245 0.06910 0.10490
0.01015 0.00100 0.08470
0.01805 0.05870 0.10620
0.14775 0.02790 0.12060
0.12715 0.07000 0.13010
0.11365 0.00980 0.15860
0.13285 0.04240 0.14900
0.13765 0.04840 0.13890
0.00675 0.00140 0.08540
0.04335 0.01050 0.11280
0.04235 -0.00130 0.10870
0.10975 0.08330 0.08200
0.12555 0.03650 0.16480
0.16325 0.01690 0.07630
0.02995 0.07230 0.08880
0.16175 0.06520 0.09530
0.04535 0.06930 0.11970
0.04885 0.00230 0.11430
0.11465 0.05240 0.15850
0.07755 0.06180 0.14750
0.15975 0.04240 0.11380
0.09685 0.01500 0.14970
0.14815 0.05260 0.12320
0.13245 0.08460 0.10270
0.04655 0.05490 0.12550
0.06255 0.03810 0.13360
0.12995 0.08390 0.09760
0.05065 0.03910 0.12540
0.01655 0.04020 0.10140
0.15165 0.05440 0.11770
0.14725 0.09200 0.08600
0.10065 0.08310 0.07540
0.12065 0.08610 0.06820
0.06775 0.08370 0.03780
0.01935 0.07000 0.09510
0.06615 0.07290 0.11710
0.10555 0.03170 0.15870
0.11295 0.07140 0.14460
0.02835 0.00770 0.10070
0.00265 0.06070 0.09560
0.13655 0.03410 0.14750
0.05755 0.03100 0.12820
0.14325 0.03210 0.13350
0.08255 0.08180 0.07040
0.14805 0.07920 0.09700
0.11845 0.04360 0.16460
0.08235 0.07970 0.08720
0.04575 0.07620 0.07850
0.07265 0.05350 0.14320
0.13065 0.05930 0.13600
0.14225 0.02470 0.12730
0.16025 0.07310 0.08860
0.06835 0.07670 0.09410
0.13885 0.06470 0.12210
0.10795 0.07650 0.14010
0.01185 0.06810 0.09750
0.14285 0.07260 0.10990
0.07925 0.08050 0.07670
0.16015 0.01690 0.08560
0.14985 0.03150 0.12060
0.08845 0.08460 0.05260
0.11605 0.02710 0.16380
0.02025 0.06430 0.10330
0.07895 0.05090 0.14700
0.08025 0.08440 0.04670
0.12585 0.03640 0.16120
0.13445 0.04630 0.14390
0.08615 0.08450 0.05080
0.06285 0.03130 0.13190
0.05925 -0.00080 0.12030
0.08325 0.02790 0.14450
0.15185 0.09020 0.08320
0.12525 0.08200 0.10560
0.06935 0.08060 0.06580
0.11595 0.07480 0.13810
0.04855 0.05330 0.12660
0.05545 0.05800 0.13190
0.05835 0.00570 0.12180
0.03435 0.00750 0.10560
0.15465 0.04710 0.12140
0.07785 0.08350 0.05200
0.01575 0.05780 0.10470
0.10595 0.06520 0.15810
0.06885 -0.00650 0.12500
0.05565 0.03720 0.12820
0.09055 0.01350 0.14530
0.04175 0.07560 0.07930
0.11185 0.08600 0.06180
0.03965 0.02220 0.11350
0.12325 0.08610 0.06720
0.07735 0.01700 0.13770
0.07085 0.04280 0.14000
0.06715 0.02770 0.13390
0.02565 0.02830 0.10480
0.06205 0.07740 0.08460
0.07945 0.01880 0.13950
0.13605 0.03970 0.14990
0.12805 0.08380 0.09560
0.13875 0.04180 0.14440
0.08745 0.02170 0.14550
0.05865 -0.00440 0.11890
0.03525 0.03890 0.11440
0.05845 0.07660 0.08620
0.14795 0.06130 0.11540
0.04585 0.00450 0.11290
0.04145 0.06890 0.11790
0.06675 0.07700 0.09180
0.16345 0.04630 0.11120
0.12435 0.08610 0.07350
0.10395 0.01310 0.15350
0.04115 0.03190 0.11700
0.07605 0.08030 0.07540
0.02955 0.06430 0.10990
0.11235 0.01790 0.15950
0.15315 0.06440 0.10650
0.09045 0.00790 0.14370
0.13125 0.02840 0.15190
0.04135 0.05220 0.12140
0.02215 0.06850 0.10520
0.08445 -0.00420 0.13600
0.11495 0.07930 0.11520
0.05305 0.07400 0.09940
0.07235 0.08180 0.06100
0.09155 0.07360 0.13320
0.06825 0.07840 0.08240
0.03015 0.06910 0.10740
0.11815 0.04120 0.16760
0.07365 0.07580 0.10660
0.15805 0.02160 0.09440
0.04955 0.08430 0.02560
0.09635 0.07410 0.13670
0.16565 0.03680 0.09830
0.04585 0.07120 0.11010
0.13725 0.08830 0.10200
0.07095 0.06930 0.14040
0.08125 0.02010 0.14120
0.08005 0.08450 0.03480
0.05805 0.07030 0.12450
0.05535 0.02620 0.12540
0.06335 0.07260 0.11680
0.08355 0.08020 0.08440
0.12435 0.02310 0.15940
0.13295 0.02910 0.14960
0.12685 0.08410 0.09310
0.05235 0.07560 0.08900
0.08415 0.08320 0.06130
0.10525 0.08610 0.06620
0.10015 0.07390 0.14310
0.14695 0.03950 0.13390
0.11415 0.00090 0.15610
0.10685 0.02290 0.15770
0.13515 0.03220 0.14930
0.04285 0.03790 0.11930
0.05705 0.07700 0.08240
0.09345 0.08320 0.07060
0.11205 0.05890 0.15580
0.14685 0.07310 0.10480
0.06115 0.07290 0.11290
0.05235 0.03300 0.12490
0.09685 0.07990 0.09820
0.11405 0.00880 0.16170
0.02365 0.04970 0.10860
0.15685 0.07730 0.09250
0.14735 0.04720 0.12940
0.11175 0.07830 0.13160
0.08835 0.01560 0.14440
0.11155 0.08480 0.07280
0.16225 0.05220 0.10800
0.15625 0.01960 0.09540
0.13725 0.05320 0.13460
0.11005 0.08410 0.07620
0.06255 0.06960 0.12980
0.06815 0.07770 0.08780
0.14835 0.07350 0.10220
0.13225 0.02650 0.14800
0.05825 0.08420 0.02640
0.03615 0.07810 0.05130
0.06325 0.08050 0.06330
0.04355 0.05360 0.12320
0.04475 0.07400 0.09360
0.06565 0.06560 0.13860
0.04565 0.08290 0.03120
0.02645 0.05020 0.11050
0.07035 0.08360 0.04460
0.02395 0.00930 0.09790
0.02455 0.04210 0.10750
0.11615 0.01640 0.16220
0.06275 0.05320 0.13650
0.05955 0.07130 0.12060
0.09095 0.07610 0.11830
0.04735 0.07280 0.10210
0.14905 0.04750 0.12690
0.14255 0.03680 0.14190
0.12065 0.05560 0.15060
0.07705 0.00380 0.13370
0.07055 0.04560 0.14110
0.03295 0.00560 0.10360
0.06605 0.07980 0.07140
0.04825 0.05040 0.12600
0.15545 0.06670 0.10160
0.15115 0.08760 0.08430
0.16395 0.06110 0.09710
0.02575 0.01740 0.10170
0.10015 0.04360 0.15840
0.02645 0.06950 0.10390
0.14655 0.01370 0.10750
0.04745 0.07750 0.06960
0.10965 0.01450 0.15700
0.09895 0.07580 0.12700
0.13305 0.04880 0.14350
0.11965 0.01480 0.15970
0.09665 0.03120 0.15360
0.08095 0.04010 0.14600
0.00975 0.00450 0.08550
0.08335 0.08380 0.05260
0.03145 0.07510 0.07280
0.08825 0.07070 0.14720
0.14855 0.04060 0.13180
0.14005 0.04750 0.13700
0.07605 0.02190 0.13810
0.09715 0.07320 0.15840
0.05995 0.06300 0.13300
0.12745 0.04790 0.14950
0.15915 0.03970 0.11290
0.07615 0.07460 0.11560
0.04205 0.07790 0.06280
0.12825 0.08450 0.11190
0.01685 0.00310 0.09030
0.07085 0.08190 0.05850
0.09415 0.07370 0.13500
0.04625 0.08110 0.03910
0.00915 0.02030 0.08920
0.06715 0.07940 0.07420
0.15035 0.07620 0.09730
0.14305 0.04830 0.13290
0.16575 0.02990 0.09000
0.09975 0.08080 0.09490
0.04605 0.07450 0.09070
0.16275 0.05590 0.10340
0.03345 -0.00840 0.09990
0.04835 0.01470 0.11750
0.10275 0.07960 0.10240
0.08955 0.03700 0.15070
0.14305 0.08720 0.09410
0.11145 0.03090 0.16140
0.07355 0.08380 0.04400
0.04895 0.02290 0.12010
0.06655 0.02090 0.13180
0.13715 0.01750 0.12890
0.10375 0.04890 0.16160
0.09795 0.06670 0.16530
0.04085 0.00780 0.11030
0.16365 0.04290 0.10910
0.03855 0.07430 0.08390
0.11885 0.08110 0.10620
0.16635 0.06830 0.09030
0.02765 -0.00670 0.09640
0.04015 0.07390 0.08980
0.10205 0.06220 0.16580
0.12765 0.05280 0.14580
0.13075 0.07760 0.11830
0.10215 0.02790 0.15610
0.15355 0.08740 0.08270
0.11995 0.01020 0.15370
0.06015 0.06960 0.12840
0.13485 0.06900 0.12230
0.14405 0.04010 0.13760
0.02865 0.07020 0.10200
0.08545 0.07750 0.10490
0.16625 0.02450 0.07870
0.08705 0.03680 0.14920
0.12215 0.02320 0.16450
0.13025 0.01040 0.13370
0.01645 0.03410 0.09950
0.06735 0.05790 0.14020
0.10225 0.07430 0.13590
0.15605 0.08560 0.08180
0.04765 -0.00610 0.11080
0.14315 0.01500 0.11470
0.02025 -0.00230 0.09180
0.11465 0.08430 0.08060
0.08405 0.04920 0.15010
0.07565 0.08600 0.03450
0.06795 0.02370 0.13340
0.05565 0.07360 0.10430
0.13835 0.05030 0.13640
0.12435 0.08340 0.09580
0.11645 0.00870 0.15930
0.11365 0.07660 0.13870
0.14025 0.08000 0.10560
0.14055 0.07160 0.11350
0.12365 0.08160 0.11220
0.09675 0.04190 0.15620
0.09165 -0.00470 0.14080
0.15205 0.07310 0.10130
0.05085 0.03110 0.12360
0.10915 0.08160 0.09580
0.12435 0.06220 0.14040
0.08415 0.07190 0.13720
0.06265 0.08280 0.04310
0.13315 0.08760 0.10240
0.09955 0.06030 0.16180
0.08285 0.08340 0.05810
0.15325 0.01650 0.09790
0.16135 0.07670 0.08680
0.10505 0.05740 0.16730
0.12125 0.08460 0.08400
0.13035 0.04900 0.14560
0.05735 0.07270 0.11120
0.08435 0.04380 0.14910
0.01335 0.06900 0.09470
0.12055 0.08000 0.11640
0.05715 0.06350 0.13330
0.06845 0.08030 0.06960
0.03145 0.07130 0.09810
0.01405 0.03270 0.09750
0.07365 0.01030 0.13320
0.12935 0.08180 0.11550
0.09045 0.06040 0.15610
0.08645 0.06990 0.15140
0.10635 0.08530 0.06370
0.10095 0.08280 0.08030
0.02145 0.07260 0.07860
0.15505 0.08170 0.08460
0.16975 0.05620 0.09470
0.13225 0.03270 0.15370
0.04165 0.07630 0.07320
0.15615 0.08030 0.08160
0.02245 0.04410 0.10670
0.11085 0.07710 0.13420
0.02175 0.00120 0.09410
0.03545 0.07260 0.09380
0.16865 0.04850 0.10350
0.07635 -0.00280 0.13100
0.09125 0.07690 0.11380
0.03905 0.05440 0.12010
0.10955 0.05160 0.16060
0.11835 0.08090 0.12280
0.09215 0.04040 0.15320
0.05305 0.03770 0.12670
0.01155 0.03330 0.09590
0.02725 0.06900 0.10660
0.02825 0.07070 0.09880
0.07575 0.08300 0.06100
0.10215 0.08330 0.07780
0.11505 0.08010 0.12740
0.04935 0.07370 0.09800
0.03855 0.07530 0.07820
0.03335 0.01230 0.10630
0.10385 0.07600 0.12750
0.02295 0.03440 0.10470
0.14155 0.04380 0.13900
0.16955 0.03990 0.09510
0.15435 0.04980 0.11910
0.11145 0.04620 0.16960
0.05885 0.01610 0.12490
0.01345 -0.00330 0.08550
0.09475 0.04010 0.15470
0.11315 0.08330 0.08620
0.08765 0.01880 0.14490
0.14345 0.07790 0.10390
0.07465 0.01320 0.13490
0.07575 0.08400 0.03080
0.16325 0.02160 0.08610
0.16005 0.06170 0.10100
0.14925 0.07520 0.09970
0.06005 0.03090 0.12970
0.12585 0.00960 0.14060
0.02445 0.02010 0.10170
0.02735 0.06580 0.11120
0.04585 -0.00380 0.11030
0.10255 0.08460 0.06580
0.06395 0.07680 0.09010
0.12045 0.08300 0.09530
0.14285 0.07480 0.10790
0.09555 0.06900 0.16040
0.12265 0.06890 0.13620
0.06605 0.07750 0.08550
0.16775 0.02570 0.08250
0.09275 0.01940 0.14810
0.12465 0.05440 0.14590
0.05355 -0.00180 0.11620
0.02325 0.07040 0.09630
0.11795 -0.00100 0.14430
0.10575 0.03740 0.16020
0.09935 0.06290 0.16440
0.08315 0.07440 0.12170
0.06015 0.07890 0.07180
0.13255 0.04510 0.14750
0.15805 0.06190 0.10290
0.04945 0.07620 0.08150
0.01365 0.03010 0.09660
0.07135 0.08490 0.04220
0.09845 0.08250 0.07890
0.12165 0.04740 0.15520
0.05855 0.07400 0.10450
0.08145 0.07560 0.11270
0.15285 0.04250 0.12560
0.00835 0.00910 0.08600
0.09265 0.08710 0.05410
0.01855 0.01130 0.09420
0.04935 0.07270 0.10440
0.13535 0.08630 0.08120
0.04395 0.00200 0.11090
0.08705 0.08210 0.07310
0.11775 0.07970 0.12540
0.12775 0.00270 0.13000
0.09305 0.08400 0.06180
0.01335 -0.00700 0.08430
0.14875 0.02440 0.11530
0.04335 0.07910 0.05520
0.04765 0.08200 0.03390
0.06165 0.07520 0.09820
0.01065 0.05850 0.10110
0.15375 0.04020 0.12410
0.07575 0.08460 0.03790
0.04335 0.06540 0.12010
0.09525 0.07300 0.16090
0.00975 0.02790 0.09230
0.13495 0.01620 0.13130
0.11365 0.00660 0.16350
0.03245 0.07640 0.06320
0.07865 0.08490 0.03970
0.03915 0.07140 0.10420
0.06735 0.03940 0.13700
0.14985 0.04220 0.12990
0.13625 0.01170 0.12410
0.15175 0.04800 0.12370
0.10315 -0.00400 0.14950
0.03435 0.06270 0.11510
0.14565 0.02430 0.12060
0.01235 0.02340 0.09310
0.16905 0.06030 0.09190
0.10015 0.05280 0.16050
0.09765 0.07310 0.14630
0.05745 0.08000 0.06130
0.06315 0.03540 0.13330
0.01215 0.00350 0.08660
0.15745 0.02360 0.09790
0.02745 0.07520 0.06780
0.05015 0.07330 0.10120
0.13545 0.05960 0.13080
0.07255 0.08110 0.06720
0.04195 0.02130 0.11480
0.04865 0.01840 0.11880
0.16365 0.07040 0.08810
0.09475 0.07220 0.15660
0.11715 0.03630 0.16990
0.00855 0.02620 0.09050
0.09315 0.08620 0.04990
0.02005 0.05490 0.10720
0.15835 0.07850 0.09000
0.15655 0.04960 0.11700
0.03655 -0.00410 0.10360
0.01505 0.02220 0.09460
0.11785 0.07270 0.13800
0.01315 0.04060 0.09910
0.12515 0.00570 0.13820
0.03145 0.04860 0.11380
0.09845 0.08550 0.05460
0.08415 0.07690 0.10890
0.12755 0.05630 0.14200
0.01635 0.01280 0.09300
0.06575 0.08200 0.05580
0.09355 0.03080 0.15160
0.05105 0.01990 0.12080
0.13785 0.01610 0.12650
0.05005 -0.00500 0.11280
0.12175 0.03870 0.16580
0.12465 0.01020 0.14460
0.01485 0.04630 0.10160
0.01535 -0.00480 0.08680
0.01355 0.02640 0.09520
0.03535 0.07640 0.06710
0.11325 0.02720 0.16170
0.12125 0.00050 0.13990
0.09295 0.07950 0.09930
0.00585 0.04290 0.09400
0.08425 0.07610 0.11290
0.14415 0.09020 0.08360
0.05105 0.00020 0.11510
0.13905 0.06220 0.12440
0.10505 0.07450 0.14970
0.11815 0.01250 0.16040
0.00685 0.06700 0.09550
0.11645 0.08560 0.06810
0.10715 0.07620 0.12770
0.08765 0.07650 0.11360
0.11855 0.04690 0.15990
0.03355 0.07240 0.09000
0.09655 0.08470 0.04770
0.14125 0.08710 0.08100
0.06835 0.08260 0.05250
0.10905 0.06260 0.15580
0.13485 0.08640 0.09200
0.14335 0.02730 0.12790
0.07125 0.01560 0.13340
0.01755 -0.00640 0.08830
0.10595 0.00920 0.15380
0.11785 0.08480 0.07870
0.06965 0.01830 0.13310
0.12205 0.01340 0.15320
0.00635 0.04980 0.09620
0.08545 0.04650 0.15040
0.06465 0.07540 0.10020
0.04795 0.02550 0.12010
0.00595 0.06520 0.09300
0.05435 0.04720 0.12970
0.13125 0.01480 0.13680
0.11265 0.07980 0.11000
0.15015 0.02420 0.11220
0.06365 0.05000 0.13660
0.01035 -0.00720 0.08270
0.05985 0.07740 0.08270
0.11965 0.06980 0.13860
0.02195 0.05230 0.10800
0.16995 0.05060 0.10160
0.07835 0.08170 0.06700
0.09255 0.08480 0.05560
0.10875 0.01780 0.15740
0.14825 0.01520 0.10590
0.01725 0.06620 0.10410
0.13825 0.06050 0.12670
0.10315 0.02230 0.15540
0.11825 0.02020 0.17100
0.05725 0.05620 0.13310
0.13255 0.06280 0.13080
0.16405 0.06540 0.09260
0.06045 0.07840 0.07480
0.04445 0.06200 0.12480
0.02275 0.07370 0.07290
0.03735 0.03220 0.11450
0.08305 0.08070 0.08050
0.14095 0.08870 0.09840
0.12685 0.04020 0.15870
0.01885 0.02110 0.09780
0.05375 0.07290 0.10630
0.05765 0.07480 0.09760
0.15495 0.02610 0.10490
0.09205 0.04430 0.15400
0.14385 0.02200 0.12130
0.03135 0.05710 0.11520
0.05115 0.04490 0.12670
0.10135 0.08610 0.06190
0.00625 0.04690 0.09530
0.07515 0.08430 0.04170
0.04965 0.00490 0.11580
0.07985 0.07950 0.08590
0.13575 0.04770 0.14180
0.07005 0.07940 0.07500
0.17375 0.05080 0.09230
0.03395 0.06750 0.11540
0.07485 0.08170 0.06360
0.04925 0.04770 0.12600
0.14985 0.01470 0.10220
0.12255 0.01590 0.15510
0.08775 0.00880 0.14220
0.08055 0.04280 0.14640
0.13365 0.00840 0.12470
0.12755 0.06290 0.13640
0.04345 0.07610 0.07680
0.08975 0.00540 0.14260
0.06025 0.08080 0.05510
0.02825 -0.00410 0.09750
0.15845 0.07520 0.08910
0.14985 0.01170 0.09880
0.13445 0.06330 0.12830
0.08025 0.08470 0.04300
0.07735 0.03880 0.14340
0.10685 0.05120 0.16690
0.08585 0.08020 0.08680
0.09975 0.08000 0.10040
0.10125 0.07540 0.12920
0.08785 0.07710 0.11080
0.14405 0.04280 0.13810
0.03255 0.07220 0.09300
0.09415 0.08120 0.08680
0.17615 0.04720 0.09190
0.08365 0.05370 0.15050
0.04565 0.07880 0.05970
0.04665 0.07590 0.08170
0.00925 0.07050 0.08360
0.16445 0.07310 0.08850
0.13795 0.01340 0.12240
0.07435 0.07880 0.08560
0.14205 0.07720 0.10630
0.16485 0.05830 0.09880
0.08575 0.07300 0.13130
0.14505 0.01130 0.10730
0.04085 0.07370 0.09270
0.07335 0.04380 0.14180
0.09375 0.06660 0.15930
0.05965 0.06680 0.13330
0.05345 0.08260 0.03500
0.08345 0.08420 0.04980
0.01775 0.07100 0.08760
0.10285 0.08430 0.06880
0.11275 0.08140 0.10040
0.04825 -0.00280 0.11240
0.03115 0.05190 0.11410
0.09425 0.05470 0.15750
0.02355 0.03960 0.10640
0.08985 0.07190 0.13970
0.08935 0.07540 0.12100
0.07705 0.02790 0.14050
0.17575 0.04560 0.08970
0.07405 0.07720 0.09630
0.05475 0.07780 0.07560
0.10495 0.05370 0.16520
0.12415 0.08270 0.10200
0.11555 0.02420 0.16320
0.06215 0.00680 0.12470
0.08075 0.03260 0.14410
0.08465 0.07320 0.12850
0.15985 0.05490 0.10770
0.13875 0.00760 0.11470
0.13945 0.02780 0.13690
0.09785 0.06620 0.16150
0.01385 0.05920 0.10280
0.09125 0.02200 0.14800
0.15875 0.01790 0.08880
0.00265 0.04500 0.09250
0.11175 0.06530 0.15010
0.16465 0.04820 0.10920
0.12335 0.08620 0.07070
0.11035 0.04410 0.16690
0.12185 0.08130 0.10790
0.16545 0.07370 0.08510
0.10865 0.04290 0.16150
0.08285 0.04170 0.14760
0.17415 0.04760 0.09630
0.14025 0.07560 0.10990
0.03885 0.02990 0.11490
0.03555 0.07490 0.07870
0.13395 0.05550 0.13630
0.02365 0.01640 0.10000
0.02985 0.06590 0.11290
0.07895 0.01380 0.13790
0.10985 -0.00380 0.15840
0.03345 0.02530 0.10990
0.07985 0.00330 0.13530
0.11815 0.00840 0.15580
0.10885 0.05420 0.16630
0.06155 0.00070 0.12260
0.14045 0.02120 0.12610
0.10025 0.07130 0.15880
0.10955 0.06750 0.15100
0.04085 0.01090 0.11110
0.10445 0.08350 0.07630
0.03245 0.03130 0.11070
0.01825 0.01440 0.09490
0.09935 0.02720 0.15430
0.16435 0.02070 0.07780
0.08355 0.07020 0.14640
0.09345 0.08530 0.04500
0.05755 0.08230 0.04240
0.10845 0.01170 0.15560
0.11185 0.02100 0.15990
0.09435 0.07590 0.12040
0.08715 0.04020 0.15000
0.13245 0.06040 0.13330
0.14045 0.08910 0.09550
0.13955 0.04350 0.14110
0.16405 0.03450 0.09780
0.12825 0.03510 0.16250
0.12155 0.02640 0.16880
0.05805 0.08370 0.03100
0.09835 0.07500 0.13110
0.04955 0.08190 0.03670
0.12745 0.08320 0.09860
0.04555 0.04080 0.12210
0.06865 0.08240 0.05560
0.02925 0.04380 0.11130
0.13195 0.03690 0.15730
0.07315 0.06900 0.14240
0.05485 0.07180 0.11450
0.00975 0.01530 0.08820
0.01215 0.03830 0.09790
0.15195 0.08430 0.08820
0.04385 0.07450 0.08860
0.09025 0.01940 0.14670
0.08585 0.07100 0.14400
0.06665 0.07630 0.09640
0.05385 0.07810 0.07250
0.13675 0.01090 0.12140
0.12535 0.07230 0.13000
0.05735 0.04670 0.13160
0.10135 -0.00070 0.14850
0.07355 0.05830 0.14450
0.06005 0.07320 0.11010
0.08605 -0.00260 0.13770
0.02185 0.01500 0.09820
0.10405 -0.00140 0.14990
0.12605 0.02700 0.16010
0.15755 0.01930 0.09290
0.13145 0.03000 0.15420
0.06225 0.08200 0.04820
0.03745 0.02070 0.11160
0.15015 0.01830 0.10560
0.09575 0.08500 0.05100
0.04585 0.01940 0.11700
0.00765 -0.00140 0.08420
0.12135 0.04460 0.15980
0.14915 0.01870 0.10820
0.04755 0.00650 0.11450
0.11055 0.07570 0.14240
0.13795 0.08680 0.07900
0.10455 0.07850 0.11390
0.10355 0.08560 0.05850
0.03625 0.01850 0.11010
0.04795 0.06690 0.12470
0.09335 -0.00210 0.14350
0.14035 0.08200 0.10360
0.09255 0.08050 0.08970
0.16095 0.04900 0.11280
0.09845 0.06940 0.16290
0.16925 0.03090 0.08570
0.14655 0.08910 0.08640
0.09605 0.00250 0.14600
0.14475 0.08050 0.09980
0.08785 0.07460 0.12390
0.15715 0.03800 0.11490
0.15305 0.05630 0.11440
0.13135 0.00560 0.12640
0.07135 0.07890 0.08220
0.13375 0.05760 0.13400
0.01155 -0.00140 0.08470
0.10085 0.07500 0.13250
0.16885 0.02530 0.07980
0.07385 0.07090 0.13310
0.09615 0.07840 0.10830
0.17085 0.05250 0.09810
0.07815 -0.00580 0.13090
0.09805 0.07440 0.13390
0.12115 0.08410 0.08670
0.14085 0.01790 0.12230
0.01055 0.06980 0.08860
0.04065 0.07870 0.05410
0.08725 0.07850 0.10020
0.09005 0.04630 0.15310
0.14165 0.04070 0.14170
0.01225 0.04660 0.10000
0.03865 0.01790 0.11170
0.09725 0.07540 0.12470
0.14455 0.01290 0.10970
0.01765 0.07240 0.07630
0.07115 0.08400 0.03930
0.05085 0.05080 0.12780
0.02945 0.04660 0.11190
0.11565 0.01350 0.16100
0.02535 0.01400 0.10050
0.15215 0.03600 0.12140
0.01945 0.07330 0.07250
0.03315 0.02250 0.10900
0.06215 -0.00700 0.12030
0.14135 0.05050 0.13290
0.09285 0.07670 0.11640
0.16925 0.04220 0.09690
0.15425 0.08200 0.08760
0.15785 0.03320 0.10810
0.01105 0.03630 0.09630
0.05575 0.02150 0.12460
0.01435 0.06850 0.09860
0.10115 0.01190 0.15160
0.12245 0.06430 0.14020
0.11305 0.07780 0.12250
0.07965 0.06580 0.14780
0.07765 0.08300 0.05610
0.09965 0.07710 0.11840
0.07175 0.03660 0.13920
0.09265 0.06950 0.16050
0.04865 0.03040 0.12190
0.11905 0.00540 0.14990
0.11425 -0.00060 0.15350
0.07585 0.07770 0.09420
0.12465 0.02140 0.15670
0.05245 0.02700 0.12350
0.03565 0.01230 0.10800
0.07925 0.07320 0.12710
0.08065 0.01570 0.13950
0.13735 0.04530 0.14200
0.07835 0.08090 0.07380
0.04445 0.07660 0.07390
0.01045 0.01150 0.08780
0.03365 0.04200 0.11390
0.02165 0.07540 0.06540
0.02305 0.06340 0.10950
0.06645 0.08270 0.05000
0.13165 0.08610 0.07870
0.16405 0.01910 0.08140
0.13245 0.08470 0.09200
0.08395 0.00860 0.13970
0.16675 0.02120 0.07920
0.03605 0.00230 0.10490
0.06975 0.06010 0.14180
0.14095 0.06650 0.11810
0.11295 0.05370 0.16120
0.12855 0.04240 0.15270
0.00795 0.04350 0.09610
0.01555 0.00710 0.09060
0.09845 0.07710 0.11560
0.10605 0.00200 0.15200
0.10005 0.03690 0.15700
0.16155 0.07570 0.08420
0.01875 0.04140 0.10340
0.04545 0.07770 0.06770
0.13735 0.02620 0.13790
0.05685 -0.00100 0.11870
0.11515 0.07960 0.13280
0.01615 0.04880 0.10310
0.03685 -0.00130 0.10460
0.07585 0.05000 0.14480
0.07795 0.04750 0.14570
0.07815 0.00800 0.13570
0.05335 0.08230 0.03800
0.06915 0.02610 0.13490
0.13305 0.08420 0.10770
0.02005 0.07420 0.06940
0.08195 0.06110 0.15050
0.00625 0.02200 0.08830
0.05935 0.06130 0.13530
0.16575 0.06670 0.08680
0.13975 0.03270 0.14090
0.06785 0.01400 0.13060
0.16575 0.04490 0.10940
0.10795 0.06520 0.15560
0.05685 0.08130 0.01730
0.16915 0.03420 0.08890
0.01915 -0.00950 0.08850
0.09035 0.07930 0.09810
0.04275 0.02880 0.11730
0.07935 0.08510 0.05540
0.09155 0.08640 0.04720
0.05715 0.07890 0.06980
0.13725 0.07980 0.10940
0.07765 0.08320 0.05890
0.06175 0.07050 0.12630
0.07145 0.08040 0.07130
0.06195 0.07980 0.06710
0.05865 0.07230 0.11450
0.08385 0.07560 0.11580
0.05415 0.07460 0.09680
0.03315 0.07590 0.06870
0.09925 0.08460 0.06310
0.04615 0.07530 0.08450
0.06895 0.04740 0.13960
0.15295 0.01300 0.09460
0.12875 0.00570 0.13120
0.14475 0.08790 0.08130
0.08425 0.07910 0.09390
0.08905 0.08120 0.08190
0.04825 0.03320 0.12230
0.04745 0.00000 0.11260
0.09065 0.02540 0.14860
0.03085 0.07800 0.05230
0.10415 0.08170 0.09290
0.14685 0.01170 0.10480
0.10885 0.07770 0.11880
0.13495 0.08650 0.07810
0.12585 0.02390 0.15710
0.12815 0.03530 0.15960
0.10505 0.06790 0.15620
0.09465 0.00560 0.14590
0.06485 0.06850 0.13660
0.00385 0.06680 0.09390
0.10565 0.07490 0.15330
0.10295 0.07420 0.13880
0.15685 0.01700 0.09120
0.12045 0.07170 0.13600
0.16595 0.03950 0.09960
0.11165 0.07820 0.11990
0.02725 0.07370 0.07750
0.14795 0.01020 0.10090
0.14915 0.02140 0.11100
0.09915 0.07940 0.10320
0.01445 0.01540 0.09220
0.03125 0.06100 0.11570
0.09045 0.08500 0.04970
0.09835 0.08510 0.05820
0.03235 0.07430 0.07900
0.03405 0.07150 0.09970
0.09385 0.07980 0.09650
0.03625 0.07630 0.07010
0.06895 0.07550 0.10370
0.01805 0.03120 0.10000
0.03045 0.03720 0.11070
0.11395 0.08520 0.07030
0.03075 0.06170 0.11190
0.15545 0.03570 0.11550
0.05125 0.05930 0.12910
0.00415 0.04840 0.09420
0.03715 0.05790 0.11930
0.05895 0.07180 0.11790
0.07955 0.07520 0.11500
0.13265 0.07800 0.11620
0.04835 0.07690 0.07690
0.03845 0.08090 0.04120
0.03295 0.06950 0.10870
0.15695 0.02640 0.10110
0.03795 0.07280 0.09520
0.12085 0.03440 0.16610
0.11635 0.05460 0.15600
0.14025 0.08730 0.09130
0.08125 0.00900 0.13800
0.06305 0.08360 0.03450
0.12865 0.01520 0.14280
0.00495 0.03180 0.09000
0.12835 0.04110 0.15600
0.15125 0.03840 0.12690
0.05005 0.08150 0.03950
0.11265 0.00350 0.16220
0.14015 0.05280 0.13180
0.11325 0.00700 0.15950
0.00625 0.02790 0.08940
0.03995 0.06540 0.11890
0.12135 0.01310 0.15630
0.08665 0.01190 0.14240
0.12685 0.08140 0.12060
0.14015 0.03940 0.14390
0.13585 0.00830 0.12090
0.05315 0.00160 0.11700
0.06845 0.06800 0.13940
0.05085 0.07240 0.10730
0.01965 0.06170 0.10810
0.08815 0.06330 0.15260
0.01625 0.01960 0.09520
0.03605 0.07420 0.08250
0.09545 0.08210 0.07890
0.05085 0.08120 0.04230
0.15055 0.02750 0.11530
0.14675 0.02870 0.12310
0.02215 0.06920 0.10230
0.06945 0.07640 0.09810
0.06625 0.07220 0.12110
0.16695 0.06490 0.09220
0.10315 0.08180 0.09020
0.13055 0.08390 0.10620
0.02755 0.01040 0.10070
0.14925 0.03640 0.12740
0.06495 0.04760 0.13710
0.13415 0.08500 0.09710
0.12095 0.01940 0.16220
0.09625 0.06500 0.15940
0.03925 0.00360 0.10780
0.12005 0.08190 0.10120
0.03575 0.07680 0.06350
0.13045 0.05360 0.14150
0.11725 0.01830 0.16850
0.11195 -0.00030 0.15740
0.05655 0.08280 0.03660
0.11845 0.08430 0.08440
0.13235 0.00840 0.12760
0.17195 0.05520 0.09080
0.11515 0.08490 0.07440
0.04745 0.07710 0.07370
0.04755 0.02820 0.12040
0.11355 0.04720 0.16740
0.08175 0.08490 0.03760
0.13595 0.05230 0.13690
0.15605 0.01380 0.08930
0.07955 0.07760 0.09910
0.10425 0.06110 0.16440
0.01515 0.03790 0.09970
0.10525 0.05130 0.16220
0.05705 0.05210 0.13240
0.11645 0.00490 0.15580
0.16815 0.04270 0.09950
0.17195 0.06240 0.09100
0.09995 0.06430 0.16210
0.14345 0.06590 0.11600
0.02865 0.00070 0.09930
0.05825 0.08180 0.04610
0.12325 0.08260 0.09900
0.10985 0.04210 0.16440
0.03315 0.02830 0.11030
0.11045 0.05750 0.15910
0.08025 0.07890 0.08930
0.06275 0.08200 0.05090
0.05455 0.07870 0.06860
0.04125 0.07130 0.10610
0.02555 0.03710 0.10720
0.01525 0.06790 0.10200
0.14275 0.08050 0.10230
0.12385 0.03970 0.16250
0.09035 0.07380 0.13000
0.11215 0.04260 0.16840
0.08615 0.02510 0.14570
0.05145 0.08460 0.02240
0.07545 0.06880 0.14450
0.10065 0.08670 0.05850
0.09655 0.07660 0.11850
0.01275 0.01010 0.08930
0.12345 0.05760 0.14560
0.08855 0.07120 0.14450
0.15815 0.05980 0.10510
0.04015 -0.00640 0.10540
0.17585 0.05260 0.09230
0.11095 0.04640 0.16510
0.14645 0.03680 0.13360
0.10055 0.08120 0.09190
0.04825 0.04520 0.12500
0.05705 0.02800 0.12690
0.15385 0.07970 0.08310
0.17365 0.04620 0.09370
0.04585 0.07980 0.04680
0.08105 -0.00560 0.13300
0.09985 0.07390 0.13980
0.08355 0.01460 0.14110
0.04015 0.06360 0.12120
0.09425 0.06880 0.15710
0.05335 0.04310 0.12820
0.01665 0.06310 0.10160
0.14735 0.07770 0.09950
0.05135 0.08060 0.04700
0.09065 0.06680 0.15550
0.12625 0.02860 0.16610
0.07615 0.04380 0.14380
0.04725 0.08340 0.02830
0.10905 0.08560 0.06320
0.16715 0.05200 0.10290
0.11555 0.04160 0.16660
0.07575 0.07390 0.11950
0.08485 0.07880 0.09720
0.14655 0.07050 0.10800
0.15455 0.07590 0.09310
0.14015 0.03650 0.14340
0.03995 0.07650 0.06990
0.09995 0.04800 0.15910
0.10225 0.07720 0.11950
0.11125 0.00000 0.15450
0.08555 0.06480 0.15230
0.08545 0.05140 0.15130
0.11365 0.03040 0.16310
0.01335 0.06980 0.08960
0.02495 0.01150 0.09940
0.09715 0.04490 0.15700
0.02905 0.04950 0.11220
0.01325 0.06240 0.10280
0.16115 0.03860 0.10760
0.03815 0.00120 0.10630
0.14155 0.03120 0.13550
0.03655 0.06850 0.11590
0.10635 0.05910 0.16320
0.07625 0.06590 0.14580
0.09985 0.08140 0.08890
0.13865 0.01220 0.11990
0.03155 0.06450 0.11490
0.13415 0.02310 0.14070
0.13125 0.01740 0.14010
0.08785 0.06640 0.15370
0.06635 0.08440 0.02990
0.09685 0.05370 0.15870
0.03215 0.03460 0.11130
0.04315 0.04130 0.12030
0.10415 0.07500 0.14690
0.03935 0.07800 0.05680
0.02225 0.05530 0.10880
0.05855 0.02110 0.12620
0.09195 0.08120 0.08450
0.09085 0.07190 0.14230
0.10505 0.07740 0.12090
