-28.60210 118.71819 996.35211
-121.63228 114.60046 954.85242
-112.84982 114.17757 951.88879
-104.85503 113.78890 949.09558
-86.53753 112.91526 942.76697
-77.44803 113.68739 949.67175
-70.96747 114.38773 955.81641
-68.34898 114.66466 958.24475
-60.43989 115.54509 965.91071
-46.63818 117.06959 979.09418
-26.83333 119.26688 997.91608
-160.95100 116.93793 968.53870
-154.11784 116.59461 966.23035
-143.55620 116.05422 962.52081
-139.81567 115.87006 961.27301
-130.50090 115.39761 957.99670
-107.74963 114.26923 950.02826
-95.46825 113.67079 945.72614
-93.31247 113.56361 944.94598
-84.47619 113.25777 942.84326
-79.68658 113.77364 947.37665
-73.23140 114.46814 953.46436
-65.06435 115.37244 961.34875
-53.41860 116.68049 972.66187
-49.35567 117.11446 976.40369
-43.20927 117.78518 982.16565
-38.03668 118.36205 987.10657
-32.46572 118.99686 992.51984
-30.00717 119.27180 994.85846
-24.70896 119.88431 1000.05365
-22.92858 120.08078 1001.71210
-164.77539 117.49339 969.87714
-133.10143 115.87960 958.88348
-125.31013 115.47610 956.05212
-119.79835 115.20963 954.20111
-115.03928 114.97704 952.56238
-111.01930 114.77422 951.14246
-103.03053 114.37663 948.29132
-100.14754 114.24290 947.34277
-62.42618 116.02054 963.89929
-58.77330 116.42728 967.40759
-55.43150 116.80243 970.63953
-159.02788 117.53545 967.71869
-152.20328 117.18769 965.38055
-147.30840 116.94466 963.74097
-141.66913 116.65318 961.75403
-137.91780 116.45281 960.36285
-128.63950 115.99498 957.21545
-91.50953 114.15094 944.15753
-89.38072 114.06811 943.57935
-82.87487 114.10406 944.19403
-76.14477 114.84625 950.67773
-69.64819 115.55167 956.80359
-67.02345 115.83053 959.22156
-45.26627 118.27528 980.20465
-41.83141 118.64448 983.35297
-35.60079 119.33919 989.25543
-21.49799 120.96407 1002.97125
-19.70817 121.17379 1004.73981
-157.10698 117.77585 966.89197
-150.30939 117.44005 964.66681
-136.04831 116.70569 959.67365
-123.45458 116.07025 955.27271
-117.94476 115.79602 953.36261
-98.32455 114.82098 946.45892
-74.52682 115.36562 952.14313
-50.71032 118.02651 975.01910
-47.98826 118.31176 977.45618
-39.41576 119.26742 985.57898
-27.89109 120.58556 996.69995
-166.42992 118.72803 970.81873
-163.20041 118.44634 969.01337
-145.39653 117.52776 962.82550
-109.17301 115.69540 950.18311
-106.27126 115.55486 949.19690
-87.56826 114.63334 942.60913
-81.27709 114.96386 945.64923
-78.38353 115.26676 948.27777
-71.92524 115.98891 954.51801
-63.74084 116.91154 962.45648
-61.08475 117.19120 964.85840
-57.42774 117.61129 968.44281
-36.99117 119.90230 987.89008
-34.20477 120.21137 990.49628
-31.40976 120.54156 993.26910
-26.12258 121.14867 998.36884
-155.19438 118.37506 966.12524
-131.57433 117.16825 957.97076
-126.75388 116.91767 956.24335
-121.60776 116.66847 954.52417
-113.54614 116.26262 951.70709
-101.56140 115.66158 947.47491
-96.52428 115.42096 945.77490
-94.36533 115.31030 944.98212
-85.45937 114.91177 942.14996
-68.33820 116.73861 957.94849
-65.70786 117.02189 960.38037
-54.07296 118.33329 971.55994
-52.39392 118.53329 973.26099
-46.62663 119.17719 978.71222
-43.89088 119.48281 981.29608
-29.30010 121.14195 995.24335
-23.99356 121.76786 1000.47906
-161.27954 119.04669 968.21838
-148.75540 118.38541 963.80078
-143.50607 118.12541 962.06927
-140.12082 117.94001 960.80005
-134.14368 117.62501 958.65515
-116.08955 116.72322 952.46069
-104.44664 116.14277 948.40479
-59.42366 118.08134 966.40344
-56.08918 118.46563 969.66504
-49.34545 119.22128 976.06348
-40.79209 120.17622 984.11890
-32.80432 121.08049 991.69330
-164.75732 119.61158 969.63068
-153.28018 118.96725 965.28149
-129.70355 117.75748 957.13525
-124.89003 117.50437 955.40778
-119.75121 117.25380 953.69592
-111.70491 116.84663 950.87238
-99.74372 116.24710 946.66376
-92.55017 115.88257 944.07031
-90.40909 115.78389 943.37384
-83.81251 115.69417 942.97375
-79.66119 116.15202 946.91107
-77.09329 116.44075 949.39038
-73.21058 116.86481 953.02527
-70.61337 117.16133 955.55847
-62.40889 118.09283 963.49420
-38.37272 120.80315 986.33289
-22.56620 122.64788 1001.69489
-20.78000 122.86070 1003.45410
-159.34526 119.63322 967.32544
-151.37967 119.21426 964.54663
-146.86382 118.98487 963.02216
-138.24774 118.54160 960.07318
-107.69328 116.98090 949.35864
-82.20825 116.19775 944.33325
-75.47820 116.96198 950.87823
-67.01263 117.90665 958.92865
-45.24691 120.36322 979.64325
-42.51081 120.68903 982.36591
-35.59329 121.47141 988.89539
-27.17885 122.46784 997.17719
-157.42307 119.87262 966.53894
-136.35825 118.77445 959.21582
-123.04445 118.10479 954.68866
-117.90340 117.84224 952.88196
-88.61294 116.37000 942.59906
-64.37502 118.54095 961.31665
-58.07693 119.25928 967.37006
-51.03126 120.07610 974.23285
-47.98185 120.43021 977.19177
-30.70253 122.40894 993.65314
-25.40780 123.02719 998.77197
-163.14857 120.53761 968.57532
-144.95302 119.56645 962.14722
-141.95999 119.41574 961.15210
-132.64290 118.93566 957.92273
-127.82246 118.68339 956.21741
-114.59734 118.00938 951.62079
-109.86577 117.77528 950.00421
-102.96910 117.41904 947.52759
-97.92104 117.16663 945.76416
-95.40637 117.04229 944.88788
-86.47256 116.60620 941.81732
-78.37192 117.32268 948.01050
-71.90468 118.04219 954.12531
-69.29689 118.33333 956.58545
-61.07439 119.27828 964.55652
-53.05658 120.20131 972.29614
-36.98122 122.02256 987.45416
-34.20120 122.35898 990.23785
-28.58816 123.01122 995.62897
-155.51343 120.46933 965.72894
-121.18655 118.68893 953.85242
-105.85249 117.89782 948.40833
-80.92771 117.36820 945.43781
-55.07027 120.31696 970.28082
-43.87870 121.59099 980.88019
-40.09582 122.02490 984.48193
-32.09933 122.95279 992.14154
-23.98576 123.90877 999.99274
-161.20477 121.11820 967.63849
-149.83052 120.51483 963.67365
-140.07202 120.00594 960.33099
-134.48933 119.72200 958.44287
-130.76735 119.52095 957.09076
-125.95868 119.27018 955.38770
-112.75848 118.59520 950.80054
-101.15712 118.01170 946.78534
-93.59969 117.62511 944.08759
-91.45388 117.52065 943.35718
-74.17060 118.47133 951.84174
-65.68787 119.43325 959.93341
-63.05326 119.73890 962.49261
-59.40821 120.16045 966.01031
-56.73630 120.45940 968.50696
-49.66760 121.27158 975.26770
-46.61414 121.63802 978.29791
-21.84854 124.52812 1002.06030
-153.60345 121.06396 964.93689
-147.92830 120.75377 962.89636
-119.32344 119.26324 952.93817
-116.40272 119.12180 951.98730
-84.74846 117.62450 941.73077
-83.15918 117.80350 943.25201
-77.07888 118.49339 949.07202
-70.59974 119.22607 955.23401
-67.97687 119.50671 957.59332
-41.81718 122.53754 982.75085
-38.70995 122.88821 985.64343
-26.46969 124.34392 997.55359
-164.07410 122.11911 969.41992
-159.27115 121.70298 966.76996
-151.70486 121.30975 964.20361
-143.41545 120.86353 961.27606
-138.18947 120.59549 959.50446
-124.09420 119.85326 954.56567
-108.37664 119.04916 949.10004
-99.33241 118.58464 945.90234
-89.65862 118.10800 942.59326
-79.63842 118.53306 946.48651
-51.69942 121.75405 973.34332
-35.93207 123.56408 988.23077
-29.63810 124.29688 994.20636
-157.37558 121.95760 966.07526
-146.03168 121.34521 962.08472
-136.31499 120.83982 958.77136
-128.89360 120.45181 956.18701
-110.91792 119.52254 949.93903
-104.37777 119.17780 947.57141
-96.80817 118.79530 944.93878
-87.50636 118.32827 941.68768
-75.46018 119.35882 950.49408
-72.86083 119.63723 952.82623
-64.36920 120.63029 961.09296
-61.71954 120.92254 963.52087
-58.06980 121.35747 967.11249
-53.71540 121.85951 971.26434
-48.30845 122.48940 976.45026
-45.24367 122.84944 979.39880
-33.49561 124.21614 990.57355
-27.87996 124.88465 996.00500
-25.04759 125.22511 998.77374
-141.53021 121.45638 960.48096
-132.95804 121.00409 957.50317
-122.24436 120.44479 953.79297
-114.54707 120.04028 951.05432
-69.28504 120.40285 956.28143
-66.65845 120.69098 958.67957
-37.31856 124.11407 986.81006
-31.39527 124.81992 992.52795
-23.26903 125.79760 1000.45239
-162.35239 122.95527 967.95081
-155.43927 122.53297 965.15045
-127.01903 121.02835 955.30414
-117.82635 120.54790 952.09937
-106.53615 119.96468 948.15546
-102.56108 119.76566 946.80243
-95.00031 119.37660 944.13379
-92.49973 119.25891 943.32581
-81.86167 119.29061 944.11169
-78.34727 119.70209 947.53760
-60.05932 121.81331 965.02637
-55.72549 122.32486 969.23773
-43.51979 123.72758 980.71240
-40.42986 124.09888 983.72552
-150.14685 122.60155 963.28967
-139.64104 122.04228 959.65692
-134.77950 121.76965 957.84357
-131.08586 121.59012 956.68469
-120.38554 121.02238 952.91913
-112.71025 120.62606 950.25830
-85.74012 119.28808 941.16077
-83.76671 119.40855 942.21118
-74.15379 120.52412 951.48419
-71.55604 120.81886 953.92712
-63.03820 121.81228 962.11938
-50.33801 123.30869 974.37952
-46.93853 123.69136 977.49615
-160.37045 123.50231 966.78265
-153.53780 123.13026 964.37769
-148.24327 122.83733 962.49591
-144.49338 122.64198 961.23224
-125.16515 121.62043 954.54395
-109.42764 120.79417 949.02185
-100.74699 120.35171 946.03442
-98.22559 120.22152 945.14154
-90.69627 119.83566 942.49872
-76.73648 120.57299 948.99225
-67.96516 121.57855 957.29181
-65.33494 121.87374 959.72174
-52.36335 123.41931 972.35834
-42.14588 124.60075 981.95770
-39.04772 124.97466 984.97113
-35.22921 125.41719 988.55096
-28.92835 126.17707 994.66669
-26.81193 126.43353 996.72314
-158.44618 123.73532 965.96698
-137.75983 122.63158 958.86652
-115.97736 121.47323 951.21960
-88.55590 120.07190 941.74445
-80.57771 120.46054 945.19385
-58.71442 122.99326 965.99561
-57.05227 123.20076 967.68872
-54.37831 123.52808 970.35077
-32.78979 126.07674 990.93243
-24.33260 127.09612 999.08862
-146.35649 123.43421 961.74121
-142.60463 123.23096 960.42401
-129.20987 122.51720 955.78827
-123.30528 122.20252 953.72565
-105.05537 121.23703 947.27667
-96.41724 120.80438 944.36096
-72.85223 121.70539 952.57269
-70.24827 122.00301 955.01538
-61.71153 123.01234 963.26208
-48.97794 124.51782 975.47314
-45.57142 124.91004 978.63940
-36.62189 125.97505 987.20190
-30.68594 126.68177 992.85779
-156.51991 124.31647 965.07428
-151.61737 124.06186 963.47406
-133.26888 123.06856 957.06519
-118.89780 122.31581 952.15186
-114.13704 122.05669 950.41681
-111.22917 121.91033 949.44452
-107.60170 121.72620 948.22192
-93.90331 121.01564 943.43219
-66.64852 122.76807 958.40094
-64.01704 123.07541 960.90100
-22.90975 127.99831 1000.42114
-162.04817 125.11996 968.07086
-140.73169 123.83082 959.71344
-135.86412 123.55145 957.88104
-127.33846 123.09450 954.91943
-121.45162 122.78561 952.90875
-103.24861 121.83459 946.59271
-86.75321 120.98117 940.81000
-84.71169 121.00443 941.09167
-82.80151 121.22031 942.86957
-79.28906 121.62988 946.23584
-75.42592 122.07350 949.87433
-60.04482 123.89144 964.64789
-55.71323 124.41365 968.86993
-51.00070 124.96582 973.32281
-43.85419 125.80428 980.04718
-40.76480 126.17759 983.03888
-34.18050 126.97425 989.39709
-27.86907 127.73970 995.47156
-25.74742 127.99531 997.49884
-154.60962 124.90655 964.27271
-149.70958 124.64597 962.62219
-131.40825 123.66330 956.34125
-99.63232 121.97983 945.21997
-92.09864 121.59131 942.60638
-77.68345 122.16045 947.73059
-71.53879 122.87405 953.55316
-68.93127 123.17944 956.03442
-53.02122 125.07371 971.32916
-47.61352 125.72915 976.57739
-38.00044 126.85897 985.59686
-160.34651 125.60835 966.50043
-147.81636 124.88692 961.88757
-144.80324 124.71532 960.77655
-138.83644 124.40642 958.82458
-125.47523 123.67620 954.11481
-117.03928 123.23129 951.18927
-109.38619 122.82600 948.52197
-89.95026 121.81766 941.77618
-65.33190 123.96456 959.52740
-62.69042 124.26956 961.99017
-58.04483 124.82477 966.45782
-42.48026 126.67394 981.24182
-32.08207 127.93380 991.23724
-29.62809 128.23227 993.59375
-158.39610 125.81770 965.51062
-112.65724 123.34352 949.62762
-106.11530 122.99169 947.29504
-101.42294 122.75098 945.71008
-97.82069 122.55910 944.42242
-81.19103 122.41348 944.13989
-74.12646 123.25171 950.94281
-54.36390 125.61388 969.94226
-49.64366 126.18295 974.48834
-39.38129 127.40704 984.21332
-35.56649 127.85487 987.75110
-24.32387 129.24168 998.67346
-152.70129 125.84675 963.41736
-142.93570 125.32122 960.11176
-134.34399 124.84210 957.05432
-129.53056 124.58588 955.41077
-123.62929 124.26808 953.35767
-119.95618 124.07150 952.09454
-115.19255 123.80761 950.35162
-95.65608 122.77780 943.54004
-88.15687 122.39777 940.98999
-70.22968 124.05761 954.61920
-67.62286 124.37897 957.20184
-46.24123 126.93196 977.58704
-26.80441 129.29677 996.23071
-156.47421 126.40003 964.64874
-136.94431 125.33023 957.89648
-104.29121 123.56963 946.48492
-85.68404 122.63860 940.31091
-83.73627 122.79810 941.63354
-76.38720 123.67905 948.74695
-64.00276 125.14708 960.53967
-61.36347 125.47221 963.13519
-56.70192 126.02344 967.53082
-51.66705 126.63431 972.39203
-44.52960 127.47987 979.08105
-36.95370 128.40016 986.33844
-33.47741 128.82903 989.69867
-150.80193 126.43787 962.64746
-146.27725 126.18114 961.03192
-141.02493 125.88604 959.16504
-132.46216 125.41669 956.18024
-127.66730 125.16926 954.61816
-121.76567 124.84067 952.50244
-110.81062 124.25625 948.68915
-107.91058 124.10674 947.71765
-93.85049 123.35431 942.72430
-79.90899 123.59126 945.23779
-72.82303 124.43152 951.99615
-59.70049 126.01367 964.63043
-48.27797 127.38528 975.50153
-41.44455 128.21571 982.04456
-31.02746 129.49278 992.05316
-28.56570 129.78668 994.34125
-154.54346 126.97057 963.71381
-148.89470 126.66624 961.82581
-118.09837 124.98676 951.15381
-99.95279 124.01896 944.83496
-91.69561 123.57392 941.86792
-78.30555 124.12424 946.72858
-68.91576 125.24055 955.67175
-66.29542 125.55193 958.15466
-43.15805 128.35742 980.33264
-25.38465 130.54333 997.39941
-160.05173 127.78123 966.73065
-144.37936 126.76177 960.18817
-139.15063 126.47829 958.41602
-125.80255 125.74546 953.75507
-113.71484 125.09637 949.58490
-102.47125 124.49295 945.64972
-82.45931 123.97195 942.71686
-75.08987 124.85818 949.80780
-62.67519 126.34206 961.62067
-58.03311 126.91036 966.11096
-55.35986 127.23549 968.67969
-53.34959 127.48657 970.65332
-50.30685 127.83910 973.44226
-38.33609 129.29382 984.82538
-34.86642 129.72174 988.16235
-158.34068 127.89600 965.04858
-135.41328 126.61089 957.00665
-130.59537 126.34914 955.35443
-116.25403 125.56593 950.34503
-106.07711 125.02171 946.81732
-98.13601 124.58967 943.97742
-89.90039 124.15316 941.09644
-71.51321 125.60807 953.01630
-46.91492 128.60724 976.65729
-40.06018 129.43422 983.11682
-32.42574 130.38779 990.52325
-152.63022 127.90436 962.84058
-142.49928 127.35321 959.43567
-123.93880 126.31955 952.91138
-120.27261 126.12404 951.65717
-109.33118 125.53320 947.85809
-95.96968 124.80440 943.08740
-87.76235 124.38367 940.31775
-84.66911 124.37233 940.37811
-77.00990 125.29647 947.74817
-67.60269 126.43343 956.76874
-64.97874 126.75349 959.29602
-45.20870 129.16676 978.21313
-36.25623 130.26755 986.76892
-29.96944 131.04881 992.81500
-27.50346 131.33952 995.05603
-156.39690 128.45683 964.03851
-147.35333 127.95908 960.98083
-137.25148 127.39428 957.47028
-133.55159 127.20276 956.26459
-128.73615 126.93559 954.58276
-111.86098 126.00189 948.61383
-104.24429 125.58641 945.92493
-81.17196 125.13723 943.72552
-73.78667 126.03500 950.84247
-61.34120 127.53050 962.63599
-56.69496 128.12184 967.26453
-51.99178 128.68507 971.66901
-48.95235 129.06589 974.64093
-150.73085 128.49246 962.06146
-140.60641 127.93018 958.58704
-122.08903 126.90182 952.11273
-100.99851 125.75735 944.75507
-94.17283 125.38908 942.35205
-79.57066 125.66833 945.17615
-70.20544 126.79629 954.09424
-59.68431 128.08702 964.22076
-42.11845 130.23587 980.93884
-33.81317 131.26669 988.89594
-26.08632 132.23445 996.32147
-154.47513 129.03250 963.17322
-145.45052 128.53415 960.10852
-126.87666 127.51688 953.77838
-118.42473 127.04922 950.81671
-114.75681 126.83308 949.42303
-107.49081 126.44111 946.91187
-92.02144 125.61114 941.52979
-83.06567 125.56840 941.65277
-66.28288 127.62212 957.82532
-63.65091 127.94183 960.32751
-54.34378 129.09790 969.33490
-43.83197 130.37561 979.23041
-39.02066 130.97752 983.87067
-131.66351 128.11674 955.31964
-99.18905 126.33792 943.99707
-86.33050 125.66738 939.63031
-75.71416 126.82169 948.78314
-72.47677 127.20777 951.81744
-58.35402 128.95352 965.44586
-50.63662 129.90022 972.77911
-47.58526 130.27383 975.67249
-40.74198 131.11850 982.18488
-37.28886 131.54399 985.44537
-31.71775 132.24461 990.80817
-28.55756 132.64346 993.85004
-158.41167 130.07727 965.20135
-148.80948 129.41000 961.10406
-143.57103 129.12581 959.36127
-138.71674 128.85469 957.69757
-135.72491 128.67413 956.55884
-125.00829 128.08640 952.90594
-116.56155 127.60544 949.85938
-110.38228 127.27902 947.78827
-105.66876 127.02072 946.14746
-102.77622 126.85914 945.09625
-97.37482 126.56214 943.16931
-90.22878 126.19180 940.77148
-78.27937 126.84338 946.22906
-68.89944 127.99597 955.24969
-45.87887 130.82924 977.19196
-35.55374 132.11920 987.07391
-152.57118 129.96976 962.32361
-129.79839 128.69606 954.50134
-120.59029 128.17860 951.24921
-112.91417 127.74961 948.53815
-64.95836 128.80998 958.84570
-62.32972 129.15292 961.49988
-55.67684 129.97308 967.84015
-52.99610 130.31534 970.47833
-30.31322 133.13335 992.03052
-27.14330 133.53632 995.09094
-156.74382 130.57146 963.84674
-146.90656 129.98540 960.24194
-141.67885 129.70168 958.51062
-133.86337 129.26591 955.84723
-123.14952 128.65990 952.07037
-95.57728 127.14768 942.45502
-88.43671 126.76813 939.99915
-84.65288 126.74850 940.03387
-81.78457 127.08449 942.67725
-74.40970 127.99432 949.77527
-71.17597 128.40422 952.96002
-60.67247 129.70351 963.02252
-49.27335 131.10631 973.81506
-33.11513 133.15007 989.40216
-150.66583 130.55061 961.51678
-127.93584 129.27469 953.68951
-108.54478 128.19055 946.88403
-100.95893 127.77670 944.24603
-93.42393 127.36801 941.62244
-80.18672 127.61971 944.13892
-76.99048 128.02785 947.31238
-67.57622 129.17174 956.19611
-57.00496 130.49130 966.36084
-44.50887 132.05321 978.30359
-42.79645 132.26341 979.90796
-38.32100 132.82626 984.18091
-154.81021 131.13350 962.86536
-145.02675 130.57745 959.50537
-137.19302 130.13974 956.84796
-118.73391 129.09251 950.35315
-115.07636 128.88339 949.03259
-104.19330 128.28549 945.26050
-63.63979 130.01831 960.00879
-59.00308 130.59225 964.41730
-54.33428 131.19299 969.01227
-51.63742 131.51563 971.48260
-40.04660 132.96721 982.52118
-34.50786 133.68048 987.91333
-139.78862 130.62650 957.63245
-131.98808 130.18727 954.94965
-126.07323 129.84853 952.85724
-111.43427 129.02654 947.72992
-106.72405 128.77069 946.11652
-99.14540 128.34824 943.43042
-91.63246 127.95157 940.89648
-86.67104 127.71999 939.42889
-83.37841 127.92519 941.11096
-73.11105 129.18428 950.86725
-69.85990 129.58134 953.92999
-47.91099 132.32286 974.89215
-36.93155 133.70140 985.32788
-31.70844 134.38165 990.46576
-29.25375 134.69260 992.78937
-148.75734 131.47394 960.59033
-143.12915 131.14874 958.62421
-135.30701 130.70851 955.96613
-121.64257 129.92940 951.17877
-116.90153 129.67934 949.61932
-78.89757 128.79556 945.18103
-75.69720 129.21379 948.40222
-66.26105 130.37103 957.30865
-46.20996 132.89021 976.48438
-41.41492 133.48216 980.96277
-152.88277 132.05040 961.91705
-130.12285 130.76534 954.13770
-124.21066 130.41820 951.99957
-102.37890 129.20799 944.45233
-97.33954 128.92462 942.64911
-89.83756 128.52533 940.11456
-62.30982 131.21300 961.04126
-55.66138 132.05130 967.41571
-52.98004 132.39468 970.01807
-50.28312 132.73784 972.61914
-156.35899 132.66515 963.37073
-146.86089 132.05397 959.80206
-113.58280 130.14952 948.16064
-109.59251 129.93201 946.78497
-95.18548 129.14667 941.85425
-84.99597 128.80637 939.88007
-81.77135 129.12614 942.37646
-71.80517 130.37001 951.91870
-68.55334 130.78462 955.08478
-64.61458 131.26660 958.76166
-60.64911 131.75797 962.49939
-43.47254 133.93463 978.94464
-39.00847 134.51500 983.28442
-35.54071 134.94736 986.52826
-33.10535 135.26440 988.89496
-150.97285 132.62282 961.02698
-141.23787 132.07420 957.77039
-138.25937 131.90645 956.75916
-133.44214 131.64177 955.17255
-128.25629 131.33803 953.30994
-119.79054 130.84610 950.28180
-105.25244 130.04071 945.28082
-100.55923 129.77339 943.60120
-93.03902 129.37183 941.06744
-80.17632 129.66841 943.86664
-77.60992 129.98077 946.26349
-57.99658 132.45656 965.09717
-30.65770 135.95110 991.29175
-144.96794 132.63094 958.96204
-115.38947 130.92674 948.59814
-107.77271 130.51408 946.05975
-88.07417 129.48479 939.63373
-74.38510 130.72084 949.26068
-54.31467 133.26357 968.51538
-51.62482 133.60477 971.07843
-48.92297 133.95747 973.72894
-47.22368 134.16452 975.27283
-44.83937 134.46782 977.54413
-40.38074 135.03685 981.79407
-28.54439 136.57225 993.19257
-154.75031 133.55147 962.37622
-136.37566 132.47597 955.89227
-131.56184 132.20551 954.26129
-126.38553 131.90230 952.42548
-122.70552 131.68835 951.11340
-117.95090 131.42458 949.50598
-111.75620 131.07465 947.34052
-98.74694 130.34247 942.77411
-91.24651 129.95119 940.33679
-83.72426 129.98969 940.98969
-70.49483 131.55501 952.93604
-66.90196 132.00369 956.33990
-59.31455 132.96234 963.56787
-42.09829 135.16895 980.08893
-37.61761 135.73805 984.31036
-149.07373 133.55414 960.21295
-143.06563 133.19670 958.08093
-103.42107 130.94240 944.35187
-78.88455 130.84169 944.87323
-76.31406 131.16037 947.29651
-63.28954 132.81584 959.80524
-56.65393 133.66147 966.15436
-34.49398 136.50290 987.30341
-32.05120 136.81772 989.62445
-152.82086 134.11064 961.38519
-139.71504 133.36000 956.93121
-129.69109 132.77455 953.41357
-124.53206 132.47821 951.62701
-96.94984 130.92725 942.07819
-86.79436 130.65474 940.66003
-73.09071 131.92076 950.40161
-61.63599 133.37100 961.32135
-52.96264 134.47624 969.59564
-50.26616 134.81758 972.13055
-36.23255 136.63652 985.59467
-147.17953 134.13312 959.40942
-134.48264 133.38319 954.94641
-120.85383 132.60666 950.26855
-113.90707 132.20018 947.76495
-109.91518 131.98097 946.44556
-106.30081 131.78343 945.22552
-101.60353 131.51141 943.53638
-94.78807 131.13460 941.19135
-89.55946 131.02815 940.72168
-82.46274 131.19753 942.26996
-69.18068 132.74129 953.95490
-65.58926 133.21463 957.50775
-45.85070 135.73087 976.25879
-43.46500 136.04831 978.60138
-38.99377 136.61418 982.77399
-29.94450 137.80495 991.53900
-150.91957 134.68887 960.56757
-137.83560 133.93504 956.11969
-127.82767 133.34619 952.58063
-116.45633 132.69072 948.62292
-92.68354 131.42006 940.87689
-85.17107 131.48358 941.71948
-80.49281 131.68912 943.38568
-77.59006 132.01753 945.87140
-57.98213 134.53297 964.70203
-55.31458 134.88426 967.31018
-47.89945 135.84081 974.39691
-145.27896 134.70123 958.53558
-141.54739 134.48860 957.28552
-132.63455 133.97746 954.26215
-118.99730 133.16748 949.37921
-108.09451 132.55740 945.66199
-99.79639 132.08661 942.76636
-75.01517 132.68877 948.30444
-71.78111 133.10146 951.39465
-67.87919 133.61238 955.21161
-60.30682 134.58249 962.44421
-51.60806 135.68524 970.62366
-41.40531 137.01924 980.44171
-33.44352 138.05788 988.05011
-154.41200 135.68277 961.98883
-125.97434 133.92413 951.81439
-123.03396 133.75461 950.80713
-112.07447 133.11890 946.94568
-104.47499 132.69179 944.33600
-91.04684 132.22469 941.75897
-88.31182 132.24490 942.04120
-64.26265 134.40575 958.50275
-37.60988 137.86397 983.97717
-35.18457 138.18675 986.33502
-31.34425 138.69119 990.02094
-149.01326 135.60962 959.67780
-143.40028 135.28522 957.77460
-135.93666 134.83685 955.13263
-130.76312 134.54620 953.42090
-84.27045 132.71869 943.14471
-79.21043 132.87939 944.50159
-62.61478 134.96765 960.05115
-56.63704 135.73434 965.71979
-53.96390 136.09047 968.33856
-49.24234 136.69455 972.78333
-44.82229 137.27400 977.04962
-152.77454 136.18307 960.92554
-139.66275 135.41086 956.42096
-114.96738 133.95728 947.75452
-102.66386 133.26814 943.58331
-98.01517 133.03970 942.22888
-95.91431 132.99030 942.00330
-93.85750 132.99980 942.18683
-86.68430 133.07201 943.06866
-82.26070 133.15034 943.83221
-76.30022 133.55392 946.93848
-73.71588 133.87706 949.34680
-70.47874 134.30339 952.51135
-66.55670 134.79880 956.18677
-46.52713 137.40318 975.34460
-40.02675 138.26256 981.61053
-147.12341 136.18867 958.87714
-134.06808 135.41188 954.32385
-128.89108 135.10822 952.53424
-121.17052 134.65694 949.84741
-117.51759 134.44891 948.60211
-110.23189 134.01990 946.01190
-106.61673 133.81831 944.78900
-90.14284 133.44347 943.07092
-58.97042 136.13882 963.47101
-43.11129 138.19695 978.51660
-150.87956 136.76347 960.15039
-137.77563 135.97511 955.54266
-124.46083 135.18510 950.89014
-100.86168 133.85338 942.90509
-92.23472 133.82751 943.21582
-77.93369 134.08765 945.71759
-68.84209 135.19368 953.91327
-61.28695 136.17686 961.14209
-55.29269 136.94580 966.77673
-52.61519 137.31154 969.44305
-50.58736 137.56099 971.26886
-47.88183 137.92052 973.88391
-38.64545 139.15498 982.84375
-36.21626 139.44777 984.95673
-34.13579 139.73895 987.05328
-32.39383 139.98244 988.81744
-145.23491 136.76503 958.07581
-141.86731 136.56192 956.89197
-132.20071 135.98535 953.52496
-127.03631 135.68529 951.77118
-119.32959 135.23259 949.08209
-113.12221 134.86105 946.83868
-108.41542 134.60001 945.28217
-88.51766 134.27615 944.11444
-85.79175 134.32269 944.57751
-83.74102 134.34949 944.86383
-81.34277 134.37299 945.14569
-75.00667 134.74751 948.03210
-72.41077 135.06433 950.38062
-65.23600 135.99762 957.24255
-41.73813 139.08626 979.74139
-104.79294 134.72736 943.93365
-98.82171 134.58092 943.26398
-96.76974 134.60068 943.51642
-94.71149 134.61198 943.70532
-63.59591 136.57047 958.85083
-57.62922 137.34225 964.48486
-149.33099 137.68828 959.28259
-135.90013 136.89587 954.69464
-130.33449 136.55405 952.69098
-122.61312 136.10526 950.05676
-116.02508 135.71138 947.71405
-91.33997 135.06409 944.61609
-79.71081 135.21773 946.25208
-67.53062 136.39772 955.01819
-59.95359 137.38297 962.20062
-53.94987 138.17337 967.94287
-49.23243 138.79182 972.41510
-45.49757 139.28891 976.00739
-152.40958 138.27661 960.69885
-139.97357 137.47371 955.98413
-111.29118 135.77473 945.99652
-102.69242 135.37868 943.75989
-87.61974 135.51932 945.55011
-84.88578 135.56061 945.97064
-82.82639 135.57893 946.19641
-77.69810 135.66335 947.01123
-73.71136 135.94586 949.13177
-71.10973 136.26659 951.48578
-43.79040 139.87051 977.59589
-40.35732 140.31445 980.78076
-37.25533 140.74097 983.83557
-35.17186 141.01442 985.79962
-147.43146 138.25601 958.42474
-143.69135 138.03464 957.16376
-134.00719 137.44559 953.74908
-128.46617 137.11848 951.85376
-125.52276 136.94354 950.81464
-120.75941 136.66867 949.22217
-117.83999 136.50139 948.23346
-106.94756 135.87263 944.51489
-100.67154 135.78751 944.30548
-97.93056 135.81128 944.62378
-95.87391 135.82878 944.85693
-93.82087 135.85210 945.12750
-89.71151 135.89752 945.65607
-62.26603 137.76979 959.87482
-56.28962 138.56276 965.61749
-51.59142 139.17447 970.02313
-47.19388 139.76463 974.27118
-33.42784 141.59515 987.35779
-138.09708 138.04572 955.16455
-114.17696 136.61131 946.78009
-109.46385 136.34283 945.19366
-81.19055 136.42036 947.26691
-76.05441 136.50310 948.07025
-69.47990 137.16687 952.93848
-66.21078 137.59541 956.05597
-58.61772 138.59309 963.26013
-38.97853 141.20950 982.01111
-150.82185 139.17412 959.61914
-145.53964 138.82852 957.62207
-141.80180 138.60124 956.31116
-132.14688 138.02345 952.99335
-104.18643 136.56541 944.66748
-92.20021 136.69653 946.22943
-86.71465 136.75934 946.93927
-83.97556 136.80002 947.35309
-79.16770 136.85300 947.94073
-72.40565 137.13345 950.14734
-64.56708 138.15324 957.53613
-42.41470 141.09929 978.66095
-123.67191 137.86182 949.99451
-102.18220 136.99864 945.36340
-99.78246 137.02144 945.65118
-94.98151 137.06888 946.23969
-88.81041 137.13998 947.04932
-60.94214 138.99260 961.03693
-54.94708 139.78088 966.69061
-52.93383 140.04791 968.60394
-50.23735 140.40154 971.12817
-48.55021 140.64058 972.82782
-148.90421 139.72705 958.68829
-136.20430 138.94817 954.22797
-130.27386 138.58292 952.12073
-126.96500 138.39159 951.01025
-119.27010 137.93851 948.38196
-116.34377 137.75778 947.32129
-112.35972 137.54272 946.07520
-97.76638 137.44504 946.28210
-82.33732 137.64172 948.42145
-77.52353 137.69493 949.00366
-75.12378 137.73685 949.39087
-68.16686 138.36490 953.98846
-57.27517 139.79883 964.28473
-45.82625 141.34227 975.28033
-41.04356 142.00287 979.95355
-36.20589 142.63487 984.42462
-139.92465 139.52583 955.50568
-121.81887 138.42494 949.15198
-107.76385 137.76384 945.50153
-105.71143 137.78995 945.80286
-93.35748 137.91211 947.32776
-91.29537 137.93108 947.56451
-85.80942 138.00745 948.36188
-71.11308 138.35526 951.37274
-63.24368 139.36166 958.60968
-44.11996 141.92104 976.82886
-34.46852 143.22458 986.02179
-146.99507 140.28258 957.75806
-144.00348 140.10219 956.74707
-134.32718 139.51097 953.37427
-110.23973 138.18105 945.81183
-103.69031 138.20425 946.37207
-101.29242 138.23369 946.70599
-96.14437 138.28783 947.36511
-87.90899 138.39049 948.49268
-80.69181 138.47847 949.43298
-59.60229 140.18770 961.99445
-51.58161 141.26950 969.68170
-38.27991 143.06413 982.34753
-138.04170 140.08839 954.63428
-125.10207 139.29823 950.11993
-114.50714 138.66962 946.47772
-99.28130 138.66751 947.39117
-84.17200 138.85249 949.43054
-76.59839 138.93901 950.36395
-74.19493 138.98204 950.76508
-69.46826 139.22882 952.61853
-66.84906 139.56226 955.00714
-55.93771 141.02711 965.43420
-47.18724 142.22308 973.87885
-150.41835 141.23630 959.00519
-142.12186 140.67334 955.93726
-132.45741 140.07646 952.55145
-128.78333 139.86971 951.37677
-117.78532 139.21046 947.58612
-94.52190 139.13693 948.47058
-92.45779 139.15712 948.71527
-90.39474 139.17978 948.97559
-79.03978 139.31213 950.42163
-65.20983 140.13104 956.55554
-61.91442 140.56523 959.63788
-53.93188 141.65256 967.33752
-49.20912 142.26978 971.69757
-42.74482 143.15306 977.91028
-39.65833 143.58678 980.93884
-123.25590 139.86885 949.32544
-120.32967 139.69589 948.33600
-111.74760 139.37619 946.72601
-108.99030 139.38934 946.98419
-106.93124 139.41132 947.25592
-104.86449 139.42400 947.46368
-102.81123 139.45547 947.79669
-97.64837 139.49791 948.37634
-87.00468 139.64417 949.91663
-82.52330 139.68674 950.42365
-72.53883 139.82533 951.79578
-58.27039 141.41101 963.11810
-36.89286 144.31476 983.49756
-148.48146 141.76662 958.09113
-145.45972 141.55719 956.88666
-136.15129 140.98999 953.70770
-130.60631 140.65619 951.81445
-126.91430 140.42389 950.48175
-100.79381 139.88463 948.45319
-75.67197 140.18965 951.76611
-45.82100 143.45595 974.98138
-41.02736 144.08846 979.39990
-35.15364 144.89539 985.03467
-140.24403 141.59451 955.10803
-116.00140 140.19135 947.24023
-96.02956 140.35538 949.52631
-93.62202 140.38412 949.85168
-91.55764 140.40898 950.12671
-89.49047 140.43077 950.37830
-85.35861 140.48125 950.92236
-80.88168 140.54076 951.52838
-78.11835 140.56589 951.82074
-70.87863 140.66922 952.82758
-68.51757 140.80844 953.83704
-63.88718 141.33640 957.59119
-60.58793 141.78558 960.75452
-52.58155 142.87251 968.38782
-50.56170 143.14938 970.32538
-44.11561 144.04408 976.57794
-143.57198 142.12433 956.07043
-134.27704 141.55098 952.83881
-113.96241 140.58615 947.67999
-110.86752 140.61476 948.06964
-108.11606 140.64073 948.41113
-106.04922 140.65704 948.64429
-103.98362 140.67566 948.88940
-99.16726 140.72716 949.50830
-74.01960 141.04291 952.85101
-56.93097 142.62723 964.18579
-54.92222 142.88753 966.01086
-48.19134 143.82323 972.55255
-38.27094 145.17879 981.95740
-138.36443 142.15845 954.26862
-125.06509 141.34120 949.66644
-121.77399 141.15041 948.59186
-101.98238 141.13106 949.70789
-87.84933 141.27455 951.41376
-83.71096 141.32300 951.93799
-66.85967 141.67665 955.01599
-146.94373 143.04019 957.21387
-132.41962 142.12708 952.10577
-129.09575 141.91922 950.92035
-119.26983 141.41086 948.17645
-97.54055 141.57622 950.58722
-95.13203 141.60796 950.93372
-92.71661 141.63091 951.20947
-90.65083 141.65865 951.50012
-79.95380 141.78430 952.85852
-77.19852 141.83206 953.30121
-72.35326 141.87851 953.81592
-65.19753 142.19595 956.19617
-62.56438 142.55177 958.68884
-59.25111 142.99290 961.77814
-42.73946 145.27051 977.59662
-39.99191 145.64723 980.20276
-141.69888 143.04890 955.24573
-117.23158 141.80931 948.63110
-115.15988 141.82076 948.84064
-113.09393 141.83961 949.09583
-109.99512 141.86980 949.48523
-107.23370 141.88872 949.77655
-105.16761 141.91046 950.04266
-100.34332 141.95973 950.64685
-86.20690 142.12415 952.48590
-82.06224 142.17076 952.99207
-70.32098 142.33797 954.61414
-46.82699 145.05241 973.61249
-36.88297 146.42270 983.04028
-145.03664 143.58786 956.25891
-136.47470 143.05692 953.31561
-127.25259 142.49911 950.21307
-103.15414 142.35289 950.77551
-89.00669 142.50182 952.52924
-75.53600 142.67212 954.28094
-53.91573 144.43103 966.83038
-51.56212 144.74893 969.03461
-49.53821 145.02965 970.97668
-45.12594 145.63762 975.16174
-41.36228 146.15892 978.76044
-35.14435 147.01042 984.55682
-148.47134 144.21115 957.91583
-139.80807 143.60551 954.39771
-123.60044 142.64682 949.10950
-98.71864 142.81584 951.76831
-96.65131 142.84286 952.06073
-94.23407 142.86771 952.34894
-84.55795 142.97034 953.51385
-79.03331 143.04887 954.28906
-73.49613 143.11542 954.96893
-68.65494 143.19069 955.66406
-63.88421 143.42665 957.39502
-61.23676 143.76637 959.75500
-57.91682 144.21414 962.86133
-55.92321 144.50540 964.87244
-134.60728 143.62517 952.53589
-130.92220 143.40680 951.32709
-121.53858 143.02129 949.42065
-119.46323 143.03075 949.61957
-116.35599 143.05292 949.96271
-114.29194 143.07771 950.25946
-112.21964 143.09296 950.48889
-109.10743 143.11212 950.81012
-106.35267 143.14569 951.19702
-101.52038 143.19304 951.78888
-92.19869 143.29497 952.96112
-87.36518 143.35669 953.61334
-81.13557 143.42075 954.33124
-66.61334 143.64597 956.42871
-48.18209 145.91679 972.14923
-43.75967 146.53534 976.38715
-38.60403 147.23306 981.16669
-143.15514 144.50679 955.41998
-125.43311 143.45323 949.68140
-104.33097 143.58086 951.86511
-77.37336 143.89661 955.31732
-71.83376 143.97192 956.04901
-146.92639 145.12683 956.90863
-137.93227 144.51770 953.52374
-132.75107 144.19908 951.77570
-129.09004 144.00134 950.71606
-99.89517 144.05168 952.90393
-97.81829 144.06882 953.13062
-95.75561 144.10796 953.50104
-90.55209 144.13911 953.97864
-85.71508 144.20508 954.65198
-83.63853 144.22986 954.91412
-75.32803 144.33354 955.96826
-69.78922 144.42015 956.76587
-59.90900 144.99115 960.88068
-52.56068 145.99254 967.76184
-40.32841 147.71291 979.49976
-36.17864 148.27718 983.33417
-141.27113 145.06998 954.60760
-123.43344 144.24901 950.43878
-120.67409 144.27527 950.79602
-118.59318 144.28201 950.97571
-115.48556 144.30949 951.35999
-113.41735 144.33344 951.64838
-111.34415 144.35194 951.89746
-108.22960 144.37450 952.22961
-102.70802 144.43958 952.97943
-93.71400 144.52951 954.05988
-80.21669 144.69283 955.79462
-65.66441 144.90874 957.81311
-63.26030 145.00119 958.50195
-54.57445 146.06894 965.83618
-50.54020 146.62553 969.64221
-46.82458 147.16975 973.35321
-42.37960 147.75250 977.31519
-145.00085 145.65489 955.86694
-136.06082 145.08328 952.73926
-126.96748 144.66145 950.60065
-106.20327 144.80666 952.88129
-88.90572 144.99129 955.02722
-73.67056 145.20169 957.10284
-68.12211 145.28424 957.86597
-56.91022 146.09015 963.55884
-45.11600 147.74092 974.80011
-37.56394 148.80078 981.98694
-101.07285 145.28809 954.02368
-98.98984 145.29993 954.21539
-92.06655 145.37595 955.08008
-86.87899 145.44920 955.81366
-84.79383 145.46378 956.00867
-82.71875 145.49670 956.32086
-78.55650 145.54575 956.82983
-76.47521 145.57198 957.09161
-71.62081 145.64330 957.76123
-61.59653 145.89830 959.80817
-58.57329 146.20847 961.93286
-48.84730 147.56204 971.15637
-139.39157 145.98111 953.74866
-134.20200 145.65594 951.98151
-131.29971 145.53146 951.38141
-125.33543 145.48239 951.48999
-122.56120 145.49510 951.75928
-119.79845 145.52255 952.12292
-117.72255 145.53897 952.36383
-114.61315 145.57085 952.76599
-112.54210 145.59560 953.05707
-110.46120 145.60808 953.26532
-104.58414 145.67314 954.04315
-96.96484 145.74852 954.95874
-94.88513 145.76878 955.20178
-64.71434 146.17827 959.21875
-39.29100 149.27136 980.27155
-143.09441 146.54646 954.86896
-129.21921 145.89211 951.59198
-108.43438 146.04277 953.92096
-90.41790 146.22742 956.11243
-81.05610 146.34431 957.32526
-74.81423 146.43762 958.20569
-69.95652 146.51611 958.91589
-67.17609 146.55576 959.28137
-51.88538 147.84552 968.21881
-43.74598 148.97920 975.86609
-41.34616 149.31097 978.11194
-146.61075 147.26564 956.80383
-137.51297 146.53989 952.92267
-127.17898 146.29730 952.08392
-106.40399 146.47617 954.57117
-102.94559 146.51909 955.04913
-100.17087 146.54422 955.36816
-93.23537 146.61528 956.20001
-88.38287 146.67590 956.83887
-85.95229 146.70149 957.12769
-83.87201 146.72993 957.41052
-77.62819 146.81932 958.27332
-72.76328 146.88228 958.88757
-60.28165 147.15891 961.15387
-55.56943 147.66719 964.60675
-53.55948 147.94649 966.49939
-47.48519 148.79094 972.19482
-141.21558 147.11160 954.08234
-124.47774 146.74731 952.89954
-121.69924 146.76009 953.16754
-118.93128 146.78665 953.52069
-116.84947 146.80005 953.74225
-113.73503 146.83182 954.14886
-111.66075 146.85669 954.43811
-98.13732 146.98412 956.03888
-96.06133 147.01389 956.34332
-63.76159 147.45218 960.63086
-50.19239 148.76663 969.61823
-45.79190 149.40096 973.86432
-144.97154 147.72896 955.53845
-132.85683 147.10889 952.37817
-130.76727 147.11177 952.54590
-109.63354 147.29483 955.11755
-104.77605 147.33775 955.68024
-91.59501 147.48422 957.34210
-82.21556 147.59274 958.49182
-80.13123 147.62007 958.76257
-75.96710 147.68889 959.39001
-71.10240 147.76624 960.09119
-69.00774 147.78156 960.27191
-66.22479 147.82584 960.66406
-57.91986 148.08890 962.64410
-37.90063 150.86615 981.25214
-135.72475 147.54265 952.69110
-128.75188 147.54846 953.22845
-126.31078 147.54987 953.40845
-107.59829 147.72618 955.73993
-102.04250 147.77495 956.37390
-94.40415 147.85312 957.29211
-89.54349 147.91031 957.90741
-87.46761 147.94902 958.26019
-73.91184 148.13048 960.03650
-62.08332 148.32944 961.77283
-42.37012 150.57524 976.91461
-39.96444 150.90358 979.10352
-139.34869 148.03415 953.31805
-123.60391 147.99979 954.22284
-120.83772 148.03270 954.61969
-118.05595 148.04761 954.89545
-115.97225 148.06291 955.12695
-112.85567 148.09839 955.54541
-100.00877 148.21791 957.06921
-97.23740 148.25801 957.47754
-85.41320 148.37735 958.84222
-78.46966 148.48740 959.86841
-60.02227 148.78928 962.52478
-48.83597 150.00247 970.70276
-44.42177 150.63995 974.94733
-143.06445 148.61647 954.52533
-134.08258 148.35458 953.50226
-131.99245 148.35979 953.68555
-110.82394 148.53435 956.19708
-105.96511 148.58427 956.80591
-103.87875 148.60127 957.03467
-83.37867 148.84511 959.66382
-72.24461 149.00562 961.17841
-70.15752 149.04277 961.50128
-68.06496 149.06989 961.75519
-65.27235 149.10352 962.07562
-56.58598 149.33099 963.82043
-54.90019 149.52034 965.08783
-52.54098 149.82031 967.09589
-46.79891 150.64223 972.58234
-145.93155 149.39705 956.80725
-137.28459 148.76865 953.66211
-129.97093 148.79312 954.34705
-127.88605 148.80609 954.57544
-125.45467 148.82295 954.84576
-108.79758 148.98169 956.92493
-95.58228 149.10390 958.44727
-93.49503 149.12546 958.69403
-91.41235 149.15553 958.99310
-88.63159 149.19160 959.36310
-81.31966 149.27498 960.24573
-76.80379 149.35542 960.95691
-50.85536 150.40146 968.59436
-141.21660 149.21049 953.91742
-122.73675 149.26680 955.60406
-119.96920 149.30373 956.02283
-117.18919 149.32651 956.34741
-115.10100 149.34027 956.56659
-102.24274 149.46593 958.13690
-99.09723 149.47476 958.36194
-86.58559 149.63884 960.05212
-74.75364 149.81490 961.70776
-63.59132 149.97969 963.19244
-61.50041 150.02272 963.54254
-59.05527 150.06186 963.88043
-41.33703 152.12885 977.64960
-38.92419 152.46280 979.86462
-135.66452 149.60707 954.62811
-133.22182 149.61206 954.83191
-113.07278 149.78407 957.27167
-107.14667 149.81897 957.85315
-105.06528 149.84676 958.15143
-84.53944 150.09138 960.77722
-79.66118 150.15410 961.40002
-71.30101 150.28712 962.60022
-69.20556 150.31386 962.85315
-67.11260 150.34772 963.14844
-45.43247 151.87262 973.58752
-43.04695 152.22554 975.90698
-144.25256 150.16212 955.27283
-139.19701 149.99612 954.59015
-131.20143 150.05037 955.51178
-129.11647 150.06647 955.76025
-127.02596 150.07686 955.97021
-124.58592 150.08794 956.20990
-111.03639 150.22078 957.91779
-97.46429 150.35739 959.56464
-94.67816 150.38718 959.90118
-92.58382 150.40276 960.10675
-90.49142 150.42268 960.33899
-82.48574 150.53568 961.43677
-57.36256 150.93683 964.97083
-53.90487 151.10265 966.11993
-49.50048 151.64090 969.69244
-47.81300 151.89697 971.37238
-121.87314 150.54521 957.05212
-119.09679 150.57686 957.43408
-116.30320 150.58798 957.68280
-108.99946 150.66055 958.58740
-103.42311 150.70595 959.19763
-101.33439 150.72804 959.45502
-88.45115 150.88327 961.11676
-77.99305 151.02429 962.49359
-75.90425 151.06264 962.82697
-73.80738 151.08694 963.06824
-65.42709 151.21671 964.21692
-60.53119 151.29092 964.86163
-142.11261 150.82101 955.11768
-137.59016 150.85106 955.64276
-134.80315 150.86598 955.94006
-114.27437 151.03484 958.39221
-106.26030 151.10310 959.30042
-99.28488 151.16158 960.06097
-86.40438 151.33826 961.84338
-80.81928 151.40433 962.51880
-70.35197 151.56725 963.99188
-68.25456 151.59715 964.26184
-63.36395 151.68291 964.98590
-52.21565 152.01862 967.46027
-40.29990 153.68558 978.39514
-132.77641 151.30040 956.59766
-130.34169 151.32057 956.90070
-128.24452 151.32635 957.08258
-126.16277 151.35075 957.37988
-123.72540 151.36984 957.66046
-112.23386 151.46994 959.03107
-96.55586 151.63484 960.96143
-93.76348 151.66171 961.27655
-91.67180 151.68727 961.54456
-84.35689 151.79794 962.60388
-58.84306 152.18102 966.03644
-56.38908 152.21625 966.34283
-44.40893 153.44307 974.45544
-140.50571 151.67584 956.16364
-121.00336 151.82297 958.45929
-118.22156 151.85358 958.83160
-110.20126 151.91956 959.74841
-108.10178 151.92839 959.92737
-104.61885 151.96745 960.37537
-102.52480 151.98569 960.60809
-89.62347 152.13907 962.24951
-79.15707 152.29024 963.69116
-77.06026 152.31810 963.95691
-74.96085 152.34271 964.20074
-72.86733 152.38100 964.52734
-66.57179 152.47649 965.37402
-61.67130 152.55527 966.04651
-46.79260 153.45306 972.16638
-42.00809 154.11543 976.49133
-143.77164 152.14464 956.58215
-136.73692 152.12080 957.02014
-116.16759 152.27112 959.35938
-100.48112 152.43283 961.30493
-98.39262 152.46304 961.60828
-87.56820 152.58397 962.91498
-82.67944 152.64912 963.55444
-69.40121 152.85364 965.40186
-54.69283 153.10695 967.50543
-50.86593 153.26462 968.60028
-48.82064 153.49719 970.12531
-138.90147 152.53873 957.25647
-134.70526 152.55272 957.64923
-131.92630 152.58382 958.04303
-129.48448 152.60039 958.31458
-127.37547 152.59592 958.43121
-125.29882 152.63078 958.79095
-122.86127 152.65427 959.10553
-114.14167 152.72891 960.12793
-106.46713 152.80312 961.05237
-95.64128 152.91032 962.32477
-92.85279 152.95100 962.72461
-85.52306 153.05260 963.71729
-64.87968 153.34547 966.41827
-57.86981 153.46158 967.38831
-141.75082 152.93678 957.31818
-120.12784 153.10066 959.86053
-112.09570 153.16383 960.75531
-109.30677 153.19496 961.11737
-103.71748 153.24547 961.75665
-90.80257 153.40445 963.44269
-81.01073 153.52490 964.65900
-78.57319 153.57991 965.10712
-76.11631 153.60013 965.34253
-74.01846 153.63490 965.64795
-71.92421 153.67934 966.01135
-67.71614 153.73250 966.50671
-62.81118 153.81503 967.20233
-60.70535 153.84511 967.46326
-52.98879 153.99010 968.61768
-45.42386 154.69351 973.24188
-118.09048 153.54301 960.53119
-101.67356 153.69647 962.46234
-99.57724 153.71873 962.71521
-97.48795 153.75331 963.04352
-88.74771 153.85527 964.13104
-83.84726 153.91095 964.70972
-56.17169 154.35034 968.52515
-43.37625 155.33479 975.04254
-140.15552 153.81299 958.47412
-138.04771 153.81227 958.62469
-135.95039 153.82361 958.84796
-133.85242 153.83463 959.06708
-131.07748 153.87605 959.52332
-128.62143 153.88048 959.72479
-126.52564 153.89539 959.96008
-124.43209 153.91420 960.21881
-121.99042 153.93782 960.52399
-116.04558 153.97926 961.16644
-107.66148 154.05838 962.16705
-105.56585 154.08076 962.42737
-94.73035 154.19992 963.75641
-86.69592 154.31714 964.89172
-70.23723 154.55255 967.06653
-66.02602 154.61078 967.58728
-59.00753 154.72729 968.55774
-50.57738 154.88605 969.80719
-47.80825 155.07964 971.08752
-41.31800 155.98352 976.85974
-114.00928 154.43054 961.88318
-111.56638 154.45872 962.20374
-92.68436 154.66414 964.52826
-82.17861 154.79115 965.81976
-80.08130 154.82805 966.14307
-77.62891 154.86285 966.47119
-75.17216 154.89078 966.74347
-73.07719 154.93893 967.12891
-63.95047 155.06874 968.28253
-61.84774 155.11302 968.63184
-54.46730 155.23544 969.63739
-120.35583 154.79945 961.56653
-109.50766 154.88560 962.76917
-103.91750 154.95055 963.49402
-100.76504 154.97813 963.84540
-98.67099 155.00955 964.15369
-96.57757 155.04337 964.47516
-90.62904 155.11827 965.23938
-85.02145 155.18225 965.90509
-68.54970 155.43440 968.17218
-57.30540 155.61084 969.66016
-52.38276 155.70284 970.38220
-141.40874 155.08601 959.66449
-139.30124 155.08916 959.84027
-137.20445 155.10440 960.08832
-135.10991 155.12280 960.35364
-133.00822 155.13354 960.57019
-130.21257 155.15616 960.90619
-127.75784 155.16647 961.13556
-125.65976 155.18288 961.37848
-123.56986 155.21053 961.69043
-118.31036 155.23799 962.20453
-106.76930 155.35188 963.60541
-88.56995 155.57115 965.92926
-71.39246 155.82191 968.24176
-60.14868 155.99770 969.73926
-49.59044 156.18260 971.20801
-46.45871 156.36772 972.42621
-44.74128 156.55833 973.65088
-116.27326 155.69135 962.93610
-113.11812 155.71292 963.25970
-94.91803 155.91768 965.54987
-83.35352 156.06825 967.04779
-81.24714 156.09343 967.29803
-79.13837 156.11504 967.52399
-76.68797 156.16164 967.91296
-74.58080 156.18991 968.17487
-66.85799 156.31775 969.26617
-63.34344 156.37570 969.75098
-55.60469 156.51129 970.84479
-42.68192 157.18599 975.37860
-121.93018 156.06903 962.70190
-111.07213 156.16156 963.94598
-108.97472 156.18767 964.23242
-105.11817 156.22168 964.66815
-103.01492 156.24159 964.90942
-99.86536 156.28159 965.32495
-97.76526 156.30943 965.60956
-92.85014 156.35367 966.13647
-86.90022 156.44756 967.01093
-69.69960 156.69617 969.27838
-58.44398 156.87924 970.80621
-53.51684 156.97621 971.55768
-51.39656 156.99683 971.74658
-140.56068 156.37221 961.07324
-138.44995 156.37511 961.24603
-136.35197 156.39281 961.50812
-134.24576 156.40154 961.71228
-132.14815 156.42082 961.97937
-129.34053 156.43425 962.25745
-126.88904 156.45326 962.54523
-124.79331 156.47705 962.83313
-119.88946 156.51761 963.40350
-90.80237 156.82874 966.96722
-72.89577 157.07521 969.28906
-65.16363 157.20584 970.38776
-61.64048 157.25427 970.80890
-48.95757 157.48978 972.64801
-117.83981 156.95813 964.04358
-115.39560 156.99265 964.40454
-107.32178 157.05486 965.27209
-96.10212 157.18169 966.66772
-88.73776 157.28038 967.63940
-85.22662 157.32576 968.08386
-82.77479 157.37115 968.48047
-80.31216 157.39818 968.75049
-78.20322 157.42650 969.01611
-75.73815 157.45210 969.28094
-68.01131 157.59227 970.44812
-56.74138 157.77991 971.98828
-46.16519 158.00403 973.66937
-123.16134 157.34900 963.90765
-113.33401 157.42311 964.98181
-110.17352 157.44737 965.32410
-104.21871 157.52036 966.11243
-102.11586 157.54652 966.38922
-99.31263 157.58380 966.77032
-94.04929 157.64790 967.44293
-71.20908 157.96703 970.42291
-63.46779 158.10152 971.53369
-59.94260 158.15775 971.99841
-54.65213 158.24768 972.72144
-52.53111 158.27466 972.95038
-44.42989 158.50470 974.57660
-139.71014 157.66179 962.48212
-137.60074 157.66994 962.68658
-135.49866 157.68715 962.94299
-133.39125 157.69827 963.16107
-131.29137 157.71895 963.43524
-128.83356 157.73413 963.69360
-126.01870 157.74501 963.94958
-121.11340 157.79239 964.56354
-91.98485 158.09959 968.11401
-87.07217 158.17337 968.80408
-74.05811 158.35205 970.46362
-66.31129 158.47169 971.49347
-50.43918 158.75003 973.71259
-48.32327 158.80225 974.08966
-119.06033 158.23245 965.20221
-116.95905 158.25714 965.48566
-108.52721 158.32806 966.42725
-106.42717 158.35910 966.73822
-97.64848 158.45811 967.82947
-89.92514 158.56512 968.87402
-84.29242 158.62596 969.51111
-82.19262 158.67500 969.90649
-79.72617 158.70224 970.17688
-77.61203 158.72733 970.42035
-69.51590 158.85524 971.53113
-61.75720 158.97275 972.52789
-58.23599 159.05130 973.12378
