-11.62157 53.02625 9.93013
-12.10087 59.10762 9.35792
-11.77535 67.77959 9.86421
-12.19664 74.56510 9.56817
-11.81822 83.29128 10.14068
-12.21014 89.50449 9.55925
-11.70023 98.27825 10.19512
-11.98013 104.81181 9.73618
-11.96695 112.83238 10.03398
-12.26051 119.27583 9.48192
-11.78625 128.04028 10.21887
-12.30383 134.20744 9.46365
-11.76115 143.03302 10.30611
-11.88418 149.65775 9.77916
-11.88003 158.06740 10.44563
-12.47787 164.30264 9.59476
-4.74323 54.55465 10.54380
-5.04529 60.72463 10.02623
-4.89342 69.21155 10.47596
-5.18780 75.92530 10.16719
-4.68077 84.75959 10.80699
-5.10104 90.89131 10.21150
-4.91867 99.22981 10.65994
-5.29543 105.69830 10.18809
-4.97320 114.30997 10.81491
-5.45339 120.33430 10.06583
-4.97861 129.02531 10.78357
-5.26821 135.43629 10.19766
-5.17172 143.71150 10.73517
-5.47782 150.62561 10.42803
-5.10228 158.67419 10.86430
-5.46015 165.19293 10.24063
4.04590 56.74986 11.40082
3.74936 62.85143 10.88117
4.08249 71.86156 11.58173
3.89408 78.29059 11.17979
4.27333 86.95382 11.77697
3.77290 93.06949 11.20909
3.56009 101.04446 11.51954
3.30787 107.45304 11.04697
3.52479 115.60089 11.46028
3.32179 122.24290 11.07678
3.58574 130.57895 11.63537
3.13972 136.95219 11.06926
3.65550 145.65691 11.90768
3.79181 152.34682 11.49670
3.36877 160.03622 11.75845
3.05183 166.52074 11.15774
10.50799 57.80209 11.82555
10.50548 64.20642 11.44192
10.57899 73.01086 12.07537
10.57564 79.08394 11.52686
10.69753 88.12592 12.31562
10.35494 94.19737 11.74456
10.27270 102.35361 12.16368
9.96785 108.64553 11.65780
10.13147 116.64571 12.01658
9.81462 123.09137 11.55066
10.29295 131.76219 12.31683
10.04174 138.07542 11.74105
10.35595 146.69711 12.56206
10.05648 152.79213 11.79929
10.03046 160.91164 12.36875
9.79545 167.40622 11.80730
18.72810 60.12705 12.73939
18.43146 66.26034 12.27584
18.76807 75.12577 12.95646
18.81906 81.70148 12.66200
18.60527 89.70100 13.01195
18.34281 95.73478 12.44624
18.51326 104.01994 12.94809
18.31866 110.26333 12.44466
18.49467 118.55267 12.98830
18.19041 124.63416 12.35907
18.31892 133.07393 13.03439
18.13358 139.41045 12.50375
18.28083 147.43704 12.98628
18.16723 154.23694 12.70863
18.34483 162.06984 13.11512
18.06481 168.35632 12.44362
25.27999 61.69060 13.37195
25.08084 67.69786 12.87422
25.12296 76.30113 13.46563
25.09763 82.56979 13.05186
25.19456 90.97260 13.59546
24.93893 96.99786 13.04756
24.92040 105.13293 13.50137
24.76005 111.41770 13.04049
25.16481 119.93279 13.72021
24.80406 126.11949 13.18343
24.84961 133.99969 13.57102
24.68179 140.36697 13.08379
24.81055 148.44632 13.62646
24.64884 155.11903 13.29854
24.76760 162.95705 13.73992
24.51782 169.20328 13.07400
33.24905 63.67641 14.14666
33.09594 69.65533 13.66042
33.40970 77.86962 14.10171
33.25912 84.02258 13.66060
32.99987 92.66379 14.34223
32.79654 98.67043 13.81097
33.38646 107.47964 14.60997
33.17251 112.99899 13.79932
33.01824 121.07591 14.28969
32.84312 127.21838 13.74645
33.15395 135.47729 14.36826
32.90033 141.70059 13.83270
33.10202 149.75717 14.39208
32.91640 156.37241 14.06427
32.71239 164.20787 14.55418
32.50879 170.53995 13.99453
39.95746 65.17628 14.74789
39.88610 71.13074 14.26899
40.17952 79.34182 14.72729
39.69260 85.70748 14.41126
39.79435 94.01511 14.95505
39.67442 100.07657 14.47048
39.93751 108.74580 15.23037
39.78511 114.18172 14.40044
39.69186 122.31051 14.94032
39.47864 128.48618 14.44497
39.62753 136.68959 15.06750
39.61395 142.71365 14.43610
39.41300 150.94395 15.14698
39.49206 157.16644 14.58676
39.41088 165.10027 15.16678
39.28160 171.40948 14.62223
47.97203 67.65985 15.71924
47.81509 73.15713 15.08104
47.69814 81.18555 15.49497
47.60296 87.62877 15.22905
47.85023 96.28585 15.95739
47.73674 101.96717 15.32689
47.73381 110.22311 15.91985
47.66565 116.03165 15.30563
47.70248 124.04427 15.81380
47.47010 128.12555 14.19556
47.57664 138.06721 15.81057
47.44555 144.06499 15.20153
47.29059 151.99931 15.75689
47.25772 158.66832 15.52694
47.16572 166.33128 15.96524
47.09327 172.57568 15.41483
54.10078 69.16190 16.33016
54.09426 74.79466 15.76532
53.84679 82.49515 16.06309
53.77636 89.05591 15.86840
53.92903 97.53851 16.53815
53.89680 103.34396 15.98645
53.72569 111.29597 16.45783
53.70650 117.30116 15.96447
53.73109 124.98969 16.32543
53.39740 130.98865 15.79627
53.63950 139.03366 16.37749
53.37006 144.91492 15.73202
53.36109 152.94044 16.36273
53.33560 159.43500 16.04798
53.32929 167.15797 16.54961
53.24060 173.25093 15.92368
61.82653 71.10079 17.08054
61.97229 76.86722 16.59186
61.90089 84.37366 16.82672
61.92166 90.29179 16.36907
61.43160 98.84182 17.10252
61.52493 104.60569 16.54818
61.76416 112.68394 17.08931
61.72319 118.73509 16.64430
61.67149 126.56123 17.10637
61.65449 132.31149 16.46053
61.56578 140.60762 17.22525
61.56540 146.47627 16.59948
61.22474 154.21620 17.10181
61.28512 160.73727 16.83714
61.42753 168.65762 17.50730
61.40772 174.87253 17.01829
67.87564 72.96252 17.83607
67.76057 78.14854 17.13624
67.53850 85.54857 17.34692
67.54067 91.84248 17.07453
67.48627 99.98318 17.63167
67.53130 105.77035 17.10946
67.48743 113.54503 17.52828
67.42329 119.39809 17.00172
67.35967 127.48572 17.61520
67.41617 132.88416 16.79637
67.26162 141.37004 17.68459
67.29013 147.14789 17.02617
67.10935 155.13445 17.69586
67.04643 161.46883 17.34447
67.09564 169.27563 17.96246
67.26906 175.08322 17.19592
75.24754 71.66523 17.28223
75.34303 77.36770 16.77600
75.38055 85.62245 17.33450
75.70929 91.02056 16.65704
75.05965 99.82430 17.51936
75.28396 105.92083 17.13539
74.89902 113.55832 17.49798
74.99185 119.23958 16.87879
74.83817 127.28629 17.46808
75.03105 133.02490 16.82684
74.71144 141.27399 17.58545
74.69331 147.26625 17.05412
74.76517 154.93715 17.51596
74.75383 161.32152 17.18704
74.67629 169.28056 17.90646
75.08437 175.09492 17.13366
81.39034 69.87753 16.56619
81.64134 75.83330 16.13995
81.57753 83.82076 16.56569
81.64995 89.47450 15.98533
81.37395 98.73727 17.02294
81.54542 103.72440 16.10151
81.29221 112.46413 16.96143
81.59659 118.17094 16.32952
81.12127 126.04369 16.81823
81.17188 132.30220 16.44299
80.98134 140.13101 16.94010
81.11792 146.24312 16.44771
80.95496 153.91277 16.89060
80.93788 160.47887 16.65270
80.91785 168.17180 17.15823
81.06934 174.31548 16.59824
89.99142 67.55243 15.56856
89.97310 73.36830 15.06284
89.73196 81.84783 15.66990
89.68906 87.46439 15.04880
88.96414 97.51617 16.42685
89.44005 102.11053 15.29207
89.29910 110.39653 15.89675
89.57410 116.21481 15.28507
89.59297 124.46253 15.91062
89.37582 129.13727 14.64741
88.90640 138.51883 15.96144
89.03093 144.71126 15.47668
88.99628 152.31812 15.83004
89.22457 158.89775 15.53983
88.70638 166.73230 16.11120
88.79572 172.93620 15.54572
96.12004 65.99673 14.95246
96.24690 71.82402 14.43102
96.04230 80.28597 15.00868
96.10469 86.35311 14.56385
95.76350 95.08553 15.31199
95.57452 101.33327 14.94251
95.85246 108.90707 15.17058
95.86324 114.66706 14.51608
95.64640 123.39935 15.37150
95.81181 129.31448 14.75107
95.36826 137.41275 15.34046
95.59136 143.38779 14.69895
95.37561 151.68843 15.45136
95.41736 157.92102 14.93167
95.12474 165.79156 15.48483
95.15704 172.07504 14.95146
104.75002 63.46121 13.87420
104.86218 69.49624 13.40718
104.61343 78.41805 14.14930
104.65366 84.36099 13.62371
104.80729 92.55645 14.08061
104.83237 98.57561 13.55345
104.34467 107.11488 14.22929
104.54106 113.03537 13.61440
104.70464 121.07840 14.06131
104.99543 126.91918 13.34491
104.58089 135.52028 14.15643
104.68276 141.62727 13.54829
104.45238 149.80881 14.17606
104.71716 155.99164 13.55410
103.82768 164.46817 14.47662
104.19766 170.61066 13.77297
111.40371 61.87469 13.23806
111.60708 67.88360 12.74030
111.43529 76.65728 13.39427
111.63982 83.13496 13.07486
111.15569 91.32626 13.53244
111.54587 97.10337 12.86322
110.94810 105.66292 13.52841
110.98734 111.73572 12.97421
110.83791 119.98677 13.51428
111.26135 125.88030 12.80218
111.08423 134.53059 13.60505
111.14561 140.51649 12.90945
110.60107 148.48689 13.39472
110.90235 155.41600 13.21322
110.48053 163.39551 13.75970
110.78139 169.72499 13.15874
120.45541 59.26282 12.12316
120.62036 65.54472 11.70597
119.76140 74.01017 12.21933
119.98044 80.49017 11.86417
119.54625 89.17317 12.50038
119.97984 95.29182 11.95533
120.09550 103.53096 12.40589
120.33278 109.57226 11.78725
119.75120 118.41216 12.60483
120.19789 124.49848 11.96206
119.82363 132.67621 12.47417
120.12334 139.14908 12.00436
119.47113 147.15239 12.47164
119.21775 153.92458 12.17929
118.99358 162.00179 12.72731
119.08578 168.34412 12.09830
126.87036 57.91423 11.59663
127.23977 64.03765 11.09395
126.80630 72.39797 11.53038
126.87498 79.37345 11.37528
126.66724 87.65427 11.80513
126.99993 93.71170 11.21416
126.44251 101.94639 11.66225
127.01159 108.15771 11.08963
126.08640 117.07798 11.93695
126.66552 123.62405 11.50906
126.06471 131.98146 12.11314
127.05000 137.36899 10.96611
126.09811 146.13120 11.86442
126.13185 152.83717 11.49064
125.81537 160.98630 12.05572
126.16689 167.39461 11.42698
136.03462 55.00443 10.36543
136.42712 61.20084 9.85650
135.79767 70.05287 10.46722
136.00525 76.68355 10.12474
135.84377 85.03658 10.54408
136.48802 91.28567 9.98890
135.43076 100.06219 10.67114
135.82349 106.39813 10.13441
135.55171 114.66036 10.57596
135.93582 121.10542 10.05321
135.38742 129.74637 10.75100
135.90393 136.12283 10.14625
135.12866 144.47992 10.75080
135.80830 151.14157 10.26224
135.03001 159.53928 10.95820
135.53015 166.12138 10.38743
143.26387 53.15357 9.62293
143.65503 59.53416 9.16845
143.08861 68.13342 9.64967
143.23143 75.06156 9.41381
142.57936 84.44760 10.28738
143.38057 89.85130 9.32976
142.70825 98.48495 9.90542
143.11253 104.75952 9.31312
142.51842 113.37136 9.91656
143.00078 119.83111 9.37366
142.39735 128.54350 10.08405
143.05312 134.89955 9.43456
142.64278 144.28992 10.60462
142.79550 149.57590 9.28351
141.72108 158.52469 10.31190
142.82979 164.86397 9.50243
