ply
format ascii 1.0
comment Generated by the ZED SDK.
element vertex 776
property float32 x
property float32 y
property float32 z
property float32 nx
property float32 ny
property float32 nz
property uchar red
property uchar green
property uchar blue
end_header
-0.13 -0.15 -0.600832 0.653639 0.0408642 0.755703 135 137 136
-0.12 -0.15 -0.609737 0.657378 0.00623735 0.753535 134 135 136
-0.119698 -0.15 -0.61 0.65825 0.00612837 0.752775 134 137 138
-0.13 -0.16 -0.600552 0.666997 0.0208241 0.74477 135 137 136
-0.12 -0.16 -0.609746 0.63838 -0.000498852 0.769721 133 135 135
-0.119693 -0.16 -0.61 0.638559 -0.000294734 0.769573 133 135 135
-0.12 -0.09 -0.61097 0.636155 0.0153506 0.771409 137 138 140
-0.12 -0.08 -0.611791 0.711534 0.0420904 0.70139 137 138 140
-0.111001 -0.08 -0.62 0.674897 0.056347 0.735758 136 139 141
-0.110166 -0.09 -0.62 0.69755 0.0222613 0.71619 136 139 141
-0.12 -0.1 -0.611492 0.65807 -0.00485875 0.752941 137 140 141
-0.110303 -0.1 -0.62 0.69181 0.0150618 0.721923 135 138 139
-0.12 -0.11 -0.611145 0.671824 0.0284473 0.740164 135 138 139
-0.11 -0.106647 -0.62 0.664244 0.0308105 0.74688 136 139 140
-0.11 -0.11 -0.619862 0.667566 0.0259952 0.744097 136 139 140
-0.109846 -0.11 -0.62 0.667743 0.0259806 0.743938 135 137 139
-0.12 -0.12 -0.610752 0.692285 0.00407786 0.721613 136 138 139
-0.11 -0.12 -0.619697 0.672315 0.0244467 0.739861 135 137 138
-0.109667 -0.12 -0.62 0.672798 0.0241939 0.73943 137 138 140
-0.12 -0.13 -0.611023 0.679773 0.0313309 0.732754 135 137 138
-0.11 -0.13 -0.619159 0.688644 0.00538049 0.72508 135 137 138
-0.109125 -0.13 -0.62 0.692007 0.00624815 0.721864 135 138 139
-0.11 -0.14 -0.619519 0.692554 0.00558845 0.721344 136 137 139
-0.1095 -0.14 -0.62 0.692607 0.00511262 0.721297 136 137 138
-0.11 -0.15 -0.619008 0.696381 0.0374283 0.716696 135 136 138
-0.108987 -0.15 -0.62 0.696401 0.0377573 0.716659 135 136 137
-0.11 -0.16 -0.618528 0.676775 0.0352831 0.735344 134 135 137
-0.108413 -0.16 -0.62 0.679481 0.0360365 0.732807 135 136 138
-0.11 -0.09 -0.620162 0.697452 0.0225918 0.716275 138 139 141
-0.11 -0.08 -0.620919 0.676876 0.0567203 0.733908 138 139 141
-0.100693 -0.08 -0.63 0.698909 0.0692005 0.711855 137 139 141
-0.1 -0.0869952 -0.63 0.676345 0.0709335 0.733162 137 139 141
-0.1 -0.09 -0.62971 0.648451 0.0807623 0.75696 137 139 141
-0.0996598 -0.09 -0.63 0.646545 0.0809023 0.758574 137 140 141
-0.11 -0.1 -0.620291 0.691319 0.0146711 0.722401 135 138 138
-0.1 -0.1 -0.628169 0.672109 0.0210691 0.740152 137 138 140
-0.0980169 -0.1 -0.63 0.677751 0.0186499 0.735055 135 138 140
-0.1 -0.11 -0.628982 0.684063 -0.027209 0.728915 136 138 140
-0.0989238 -0.11 -0.63 0.68712 -0.0284671 0.725986 136 137 139
-0.1 -0.12 -0.62903 0.664866 0.0149467 0.746813 135 137 139
-0.0989038 -0.12 -0.63 0.664049 0.0158778 0.747521 137 138 140
-0.1 -0.13 -0.628564 0.669588 0.0198174 0.742469 137 139 140
-0.0984015 -0.13 -0.63 0.668752 0.0205668 0.743201 136 139 140
-0.1 -0.14 -0.628519 0.657141 0.0108669 0.75369 136 138 139
-0.0982902 -0.14 -0.63 0.655936 0.0117651 0.754725 137 139 140
-0.1 -0.15 -0.628274 0.662175 0.0265693 0.748878 136 138 140
-0.0980268 -0.15 -0.63 0.655167 0.0265399 0.755018 136 137 139
-0.1 -0.16 -0.627713 0.677651 0.0411683 0.73423 135 136 138
-0.097527 -0.16 -0.63 0.668864 0.0361285 0.742506 134 137 138
-0.1 -0.08 -0.63068 0.693807 0.0682494 0.71692 138 139 141
-0.09 -0.09 -0.637525 0.622897 0.00314045 0.782297 137 140 142
-0.09 -0.08 -0.637694 0.643115 0.029779 0.76519 137 140 142
-0.0874298 -0.08 -0.64 0.667415 0.0371833 0.743757 136 138 140
-0.0868727 -0.09 -0.64 0.623522 -0.00551352 0.781787 136 138 140
-0.09 -0.1 -0.637881 0.638285 -0.0418714 0.76866 136 138 140
-0.0873069 -0.1 -0.64 0.617959 -0.043745 0.784992 136 138 140
-0.09 -0.11 -0.638419 0.676688 -0.00490126 0.736253 136 137 139
-0.0882757 -0.11 -0.64 0.673784 -0.00491033 0.738912 136 139 141
-0.09 -0.12 -0.637973 0.676478 0.0296395 0.735866 136 138 140
-0.0878085 -0.12 -0.64 0.678682 0.0296061 0.733836 137 141 142
-0.09 -0.13 -0.637663 0.669694 0.029003 0.74207 136 139 141
-0.0874173 -0.13 -0.64 0.670948 0.0314302 0.740838 137 139 141
-0.09 -0.14 -0.637202 0.658815 0.0339843 0.751537 135 139 139
-0.0868267 -0.14 -0.64 0.661573 0.0344348 0.74909 136 139 140
-0.09 -0.15 -0.63667 0.662052 0.026849 0.748977 135 138 139
-0.0863177 -0.15 -0.64 0.669697 0.0232837 0.74227 136 138 140
-0.09 -0.16 -0.636476 0.670194 0.0144365 0.742046 134 137 139
-0.0861954 -0.16 -0.64 0.677681 0.0130283 0.73524 136 138 140
0.64 -0.4 -1.13872 0.0940241 0.987676 0.125125 132 144 127
0.641705 -0.4 -1.14 0.0937297 0.98726 0.128581 132 144 127
0.64 -0.399838 -1.14 0.0938137 0.987542 0.126333 132 144 127
0.65 -0.4 -1.14482 0.0942357 0.987053 0.129796 42 52 40
0.65 -0.399319 -1.15 0.0999309 0.987832 0.119172 42 52 40
0.64 -0.398562 -1.15 0.0600498 0.993186 0.0998771 42 52 40
0.656003 -0.4 -1.15 0.110918 0.988137 0.106217 104 117 99
0.65 -0.398277 -1.16 0.0707577 0.993043 0.0941246 148 163 144
0.64 -0.398121 -1.16 -0.015947 0.9993 0.0338434 148 163 144
0.66 -0.4 -1.15479 0.120312 0.988949 0.0866261 61 73 58
0.66 -0.399544 -1.16 0.13483 0.985151 0.106294 61 73 58
0.663223 -0.4 -1.16 0.144937 0.983538 0.107921 75 88 73
0.65 -0.39741 -1.17 -0.0243929 0.995925 -0.0868225 159 174 156
0.64 -0.398517 -1.17 -0.109584 0.989755 -0.091523 159 174 156
0.66 -0.398117 -1.17 0.127295 0.988801 0.0779034 160 173 156
0.66878 -0.4 -1.17 0.217862 0.964523 0.149101 98 110 94
0.640142 -0.4 -1.18 0.130606 0.990989 0.0297006 161 177 157
0.64 -0.399981 -1.18 0.128445 0.991279 0.0294566 161 177 157
0.65 -0.4 -1.17776 -0.129061 0.940613 -0.31399 161 177 157
0.653184 -0.4 -1.18 -0.229151 0.922624 -0.310249 159 175 156
0.66 -0.398245 -1.18 -0.118909 0.964131 -0.237303 159 175 156
0.67 -0.4 -1.17175 0.181264 0.971114 0.155179 158 172 153
0.67 -0.398641 -1.18 0.0367071 0.999068 -0.0227149 158 172 153
0.68 -0.4 -1.1732 0.0501144 0.992524 0.111284 132 144 126
0.68 -0.399238 -1.18 0.0693737 0.993524 0.0899839 132 144 126
0.687897 -0.4 -1.18 0.0971386 0.991953 0.0812033 61 71 57
0.64 -0.398322 -1.19 0.215354 0.956245 0.198037 158 173 153
0.647029 -0.4 -1.19 0.230106 0.943467 0.238582 158 173 153
0.66 -0.4 -1.18525 -0.145374 0.938314 -0.313739 156 171 151
0.67 -0.4 -1.18697 -0.10302 0.973796 -0.20275 158 175 155
0.67344 -0.4 -1.19 -0.165225 0.965952 -0.199089 159 173 154
0.68 -0.398879 -1.19 -0.0945414 0.984308 -0.148995 159 173 154
0.69 -0.4 -1.18294 0.0832582 0.993946 0.0716899 154 167 149
0.69 -0.399492 -1.19 0.0450498 0.998353 0.0355124 154 167 149
0.7 -0.4 -1.18931 0.0861524 0.99179 0.0945054 91 104 87
0.7 -0.399935 -1.19 0.0870075 0.991656 0.0951179 91 104 87
0.700731 -0.4 -1.19 0.0886399 0.991405 0.0962289 61 71 59
0.65 -0.4 -1.1926 0.240879 0.932611 0.268725 159 173 154
0.65 -0.397869 -1.2 0.23289 0.937824 0.257389 159 173 154
0.64 -0.396152 -1.2 0.16545 0.963798 0.209092 159 173 154
0.657769 -0.4 -1.2 0.254845 0.929178 0.267736 157 175 152
0.68 -0.4 -1.19487 -0.149172 0.963571 -0.22199 161 174 156
0.688678 -0.4 -1.2 -0.145499 0.961281 -0.234029 161 176 156
0.69 -0.399799 -1.2 -0.113294 0.977397 -0.178491 161 176 156
0.7 -0.399097 -1.2 0.0203031 0.998279 0.0550109 162 177 157
0.71 -0.4 -1.19674 0.0956283 0.989237 0.110746 125 139 120
0.71 -0.399635 -1.2 0.0970776 0.989241 0.109444 125 139 120
0.713518 -0.4 -1.2 0.10252 0.988555 0.11067 60 70 57
0.85 -0.4 -1.36299 0.599306 0.51992 0.608699 138 168 120
0.85 -0.391792 -1.37 0.570516 0.394439 0.720368 138 168 120
0.847027 -0.4 -1.36 0.588969 0.529989 0.610105 138 168 120
0.84 -0.392956 -1.36 0.620891 0.39994 0.674197 138 168 120
0.849167 -0.39 -1.37 0.654908 0.306238 0.690879 138 168 120
0.84 -0.39 -1.3615 0.637536 0.348062 0.687315 138 168 120
0.857496 -0.4 -1.37 0.578325 0.505306 0.640473 148 171 137
0.85 -0.39 -1.37099 0.488123 0.440088 0.753697 137 168 118
0.86 -0.4 -1.37227 0.611347 0.483721 0.626313 137 168 118
0.86 -0.39 -1.3799 0.650028 0.402952 0.644278 137 168 118
0.8601 -0.39 -1.38 0.650135 0.401671 0.644969 141 164 128
0.866279 -0.4 -1.38 0.649093 0.420707 0.633786 141 164 128
0.87 -0.4 -1.3834 0.655979 0.40197 0.638836 135 166 112
0.87 -0.39 -1.38969 0.67602 0.338729 0.654415 135 166 112
0.8703 -0.39 -1.39 0.67631 0.336228 0.655405 126 152 113
0.875272 -0.4 -1.39 0.727613 0.335326 0.598444 126 152 113
0.88 -0.4 -1.39602 0.754101 0.284603 0.591889 131 164 105
0.88 -0.391731 -1.4 0.787619 0.23731 0.568631 131 164 105
0.879493 -0.39 -1.4 0.781892 0.243736 0.573793 131 164 105
0 -0.17 -0.719191 0.674992 0.0440484 0.736509 143 147 148
0.000883629 -0.17 -0.72 0.674492 0.0439513 0.736972 143 147 148
0 -0.162126 -0.72 0.673216 0.0755463 0.735577 143 147 148
0.00094508 -0.18 -0.72 0.740257 -0.000839719 0.672323 145 149 150
0 -0.18 -0.718958 0.740704 -0.00076714 0.671831 145 149 150
0.000712854 -0.19 -0.72 0.730855 -0.0129339 0.68241 145 148 149
0 -0.19 -0.719237 0.730826 -0.0129421 0.682441 145 148 149
0.00061888 -0.2 -0.72 0.73992 -0.0119791 0.672588 146 149 149
0 -0.2 -0.719319 0.739946 -0.0119736 0.67256 146 149 149
0.000370093 -0.21 -0.72 0.731062 -0.0720452 0.678497 145 149 149
0 -0.21 -0.719601 0.731055 -0.0720147 0.678508 145 149 149
0 -0.213059 -0.72 0.730093 -0.0883324 0.677615 145 151 146
-0.33 -0.35 -0.409925 0.50137 0.55647 0.662547 137 138 137
-0.33 -0.349912 -0.41 0.499451 0.55989 0.661114 137 138 137
-0.338772 -0.35 -0.4 0.743545 0.134487 0.655023 137 138 137
-0.34 -0.3455 -0.4 0.741548 0.342342 0.576982 137 138 137
-0.339775 -0.34 -0.41 0.570017 0.555924 0.605004 137 138 137
-0.34 -0.34 -0.408976 0.921655 0.330835 0.202732 137 138 137
-0.329901 -0.35 -0.41 0.499878 0.555106 0.664815 138 140 139
-0.338895 -0.36 -0.4 0.645505 0.33644 0.685661 136 138 137
-0.33 -0.36 -0.407476 0.61374 0.37511 0.694705 136 138 137
-0.327101 -0.36 -0.41 0.614152 0.329838 0.716955 132 132 134
-0.33 -0.366796 -0.4 0.474406 0.736486 0.48221 46 47 49
-0.32 -0.367527 -0.41 0.507913 0.693852 0.510484 105 106 107
-0.32 -0.369282 -0.4 0.237816 0.956695 0.167865 105 106 107
-0.339614 -0.32 -0.42 0.564849 0.0367028 0.824378 138 138 138
-0.34 -0.32 -0.419736 0.564852 0.0367032 0.824375 138 138 138
-0.338964 -0.33 -0.42 0.541694 0.290361 0.788833 138 138 138
-0.34 -0.33 -0.419289 0.54239 0.284821 0.790373 138 138 138
-0.33 -0.34 -0.417103 0.449179 0.550095 0.704012 137 137 137
-0.33 -0.336622 -0.42 0.473535 0.583666 0.659619 137 137 137
-0.34 -0.339813 -0.41 0.478344 0.576627 0.662335 137 137 137
-0.32 -0.35 -0.416359 0.557291 0.26239 0.787768 134 136 135
-0.32 -0.343471 -0.42 0.452695 0.472148 0.756402 134 136 135
-0.323983 -0.34 -0.42 0.407043 0.514413 0.754782 134 136 135
-0.32 -0.36 -0.416528 0.65365 0.259147 0.711045 133 135 134
0.65 -0.402443 -1.05 -0.0677592 0.997696 0.00347944 116 125 111
0.64 -0.402994 -1.04 -0.0713681 0.997315 -0.0164234 116 125 111
0.65 -0.402836 -1.04 -0.0235466 0.998758 0.0439074 116 125 111
0.64 -0.403719 -1.05 -0.116103 0.992905 -0.0257031 116 125 111
0.66 -0.402036 -1.05 0.0510566 0.99841 0.0239003 86 92 80
0.66 -0.402615 -1.04 0.0235481 0.999581 0.0168508 86 92 80
0.67 -0.403551 -1.05 0.0361702 0.999143 -0.020137 135 143 131
0.67 -0.402489 -1.04 -0.00593464 0.996349 -0.0851614 135 143 131
0.68 -0.403143 -1.05 0.00135543 0.999889 -0.0148297 139 144 135
0.68 -0.402906 -1.04 0.0480808 0.998806 -0.00860087 139 144 135
0.69 -0.403387 -1.05 0.00402993 0.999842 0.0173055 138 143 137
0.69 -0.403755 -1.04 0.0230467 0.99907 0.0364403 138 143 137
0.7 -0.40301 -1.05 -0.0218672 0.999758 0.00239213 135 138 131
0.7 -0.403362 -1.04 -0.0485419 0.998587 0.0216079 135 138 131
0.71 -0.402703 -1.05 -0.0263561 0.998649 -0.0447938 142 144 140
0.71 -0.402508 -1.04 -0.034143 0.999263 -0.0175641 142 144 140
0.72 -0.402832 -1.05 0.0148196 0.999733 -0.0177054 137 139 136
0.72 -0.402714 -1.04 0.020531 0.999719 -0.0118669 137 139 136
0.65 -0.402451 -1.06 -0.0665037 0.997778 -0.00406326 83 92 77
0.64 -0.403303 -1.06 -0.0451134 0.998715 0.0231123 83 92 77
0.66 -0.402199 -1.06 0.0434311 0.999041 -0.00556292 118 128 113
0.67 -0.403259 -1.06 0.0748893 0.9969 -0.0241212 138 148 135
0.68 -0.403012 -1.06 -0.0137858 0.998888 -0.0450837 141 148 139
0.69 -0.403195 -1.06 0.00710087 0.999945 -0.00775831 137 142 134
0.7 -0.403069 -1.06 0.044999 0.998917 -0.0118715 137 142 136
0.71 -0.403762 -1.06 -0.00168379 0.997994 -0.0632837 138 140 134
0.72 -0.40303 -1.06 -0.0515261 0.998051 -0.0351937 139 141 136
0.65 -0.403204 -1.07 -0.0276865 0.999485 0.0162387 118 127 113
0.64 -0.402455 -1.07 0.0529693 0.99647 0.0651297 118 127 113
0.66 -0.402079 -1.07 0.0282183 0.999596 -0.00335226 135 145 130
0.67 -0.403573 -1.07 0.0694562 0.997574 -0.00458707 136 146 132
0.68 -0.403648 -1.07 0.00592555 0.999807 -0.0187348 141 150 137
0.69 -0.403677 -1.07 -0.0116021 0.999073 -0.041455 138 144 135
0.7 -0.403171 -1.07 0.00387856 0.999324 -0.0365652 138 143 135
0.71 -0.404052 -1.07 0.00230441 0.999925 0.0120654 135 138 130
0.72 -0.403107 -1.07 -0.0888031 0.996014 -0.00836762 136 138 131
0.65 -0.40231 -1.08 -0.00198339 0.999937 -0.0110929 144 154 139
0.64 -0.402426 -1.08 0.00299187 0.999726 -0.0232198 144 154 139
0.66 -0.402057 -1.08 0.0277699 0.999196 -0.0289347 144 154 139
0.67 -0.403511 -1.08 0.0696902 0.997373 0.0197398 138 148 132
0.68 -0.403375 -1.08 0.0205348 0.999729 0.0109924 140 147 133
0.69 -0.403781 -1.08 0.0307973 0.99944 -0.013065 143 151 140
0.7 -0.404099 -1.08 -0.02671 0.998476 -0.0483027 142 147 138
0.71 -0.403411 -1.08 -0.0262943 0.999603 -0.0101387 140 145 137
0.72 -0.403092 -1.08 -0.0475113 0.998683 -0.0193555 139 141 136
0.65 -0.403096 -1.09 0.0282496 0.999437 -0.0180797 147 158 141
0.64 -0.402628 -1.09 0.032443 0.999437 -0.00849799 147 158 141
0.66 -0.403295 -1.09 -0.00827048 0.998885 -0.046475 142 155 138
0.67 -0.40308 -1.09 0.0196513 0.999672 0.016454 140 148 133
0.68 -0.403287 -1.09 0.0533276 0.99843 0.0171283 143 151 137
0.69 -0.404047 -1.09 0.0423135 0.9988 -0.0246791 147 155 141
0.7 -0.40431 -1.09 0.00319686 0.999536 -0.0303006 146 153 143
0.71 -0.403774 -1.09 -0.0437688 0.996866 -0.0659031 143 149 140
0.72 -0.403808 -1.09 -0.00534972 0.999655 -0.0257216 138 143 136
0.65 -0.402777 -1.1 0.0162543 0.999579 0.0240232 145 157 140
0.64 -0.402883 -1.1 0.00486571 0.999894 0.0137385 145 157 140
0.66 -0.403148 -1.1 0.0056975 0.999547 0.0295674 144 154 138
0.67 -0.40278 -1.1 -0.0082554 0.999923 0.00924203 142 151 136
0.68 -0.402929 -1.1 0.0734059 0.997091 0.0204994 139 149 134
0.69 -0.404449 -1.1 0.0709011 0.997402 0.0127777 145 154 140
0.7 -0.40437 -1.1 0.0344925 0.999373 -0.00804319 149 159 145
0.71 -0.405124 -1.1 -0.030539 0.998031 -0.0547816 146 152 143
0.72 -0.403785 -1.1 -0.0982286 0.992095 -0.0780899 142 147 139
0.65 -0.402555 -1.11 0.0151715 0.999021 0.0415532 144 154 138
0.64 -0.40204 -1.11 0.0456892 0.99748 0.0542801 144 154 138
0.66 -0.402592 -1.11 0.030004 0.998369 0.0485718 146 158 141
0.67 -0.402841 -1.11 0.00551179 0.999974 0.0047271 142 151 135
0.68 -0.403054 -1.11 0.0441424 0.998677 0.0263817 144 152 137
0.69 -0.403787 -1.11 0.0838878 0.994837 0.0571178 145 158 141
0.7 -0.404453 -1.11 0.0456646 0.998564 0.0280046 150 158 144
0.71 -0.404933 -1.11 0.0244819 0.999334 0.0270591 146 155 142
0.72 -0.404704 -1.11 -0.0504206 0.998466 -0.0228553 148 155 143
0.65 -0.402193 -1.12 0.00334069 0.99953 0.0304856 146 157 141
0.64 -0.401906 -1.12 0.0286436 0.999501 0.013321 146 157 141
0.66 -0.401858 -1.12 0.0508479 0.996667 0.0637919 147 156 141
0.67 -0.403037 -1.12 0.00660022 0.999972 0.00342063 142 152 135
0.68 -0.402461 -1.12 0.0184912 0.99905 0.0394711 144 152 137
0.69 -0.403014 -1.12 0.0828037 0.993939 0.072317 146 156 141
0.7 -0.40404 -1.12 0.0571457 0.997105 0.0501686 148 158 142
0.71 -0.404341 -1.12 0.0423762 0.99761 0.0545703 145 154 141
0.72 -0.4048 -1.12 0.0114678 0.999629 0.0246981 143 152 140
0.085528 -0.09 -0.8 0.344379 0.164699 0.924271 122 162 98
0.09 -0.09 -0.801695 0.32503 0.177816 0.928836 122 162 98
0.09 -0.08 -0.802516 0.296271 0.0824355 0.95154 122 162 98
0.0823792 -0.08 -0.8 0.312013 0.0982471 0.944984 122 162 98
0.1 -0.09 -0.804481 0.291905 0.121924 0.948644 121 167 97
0.1 -0.08 -0.805077 0.268357 0.0508629 0.961976 121 167 97
0.11 -0.09 -0.807636 0.472278 0.103224 0.875384 120 168 94
0.11 -0.08 -0.807951 0.374923 -0.0183304 0.926875 120 168 94
0.114877 -0.08 -0.81 0.40654 -0.0593558 0.911703 120 168 94
0.113417 -0.09 -0.81 0.553383 0.0992075 0.826998 120 168 94
0.09 -0.0962804 -0.8 0.275354 0.250497 0.928133 122 165 97
0.0940084 -0.1 -0.8 0.324341 0.212611 0.921737 121 166 96
0.1 -0.1 -0.802277 0.380447 0.143899 0.913539 121 166 96
0.11 -0.1 -0.806505 0.389903 -0.0314778 0.920318 121 168 95
0.118217 -0.1 -0.81 0.417291 0.0668513 0.906311 120 168 94
0.0972876 -0.11 -0.8 0.41786 0.0280763 0.908077 120 168 95
0.1 -0.11 -0.801266 0.422943 0.0591418 0.904224 120 168 95
0.11 -0.11 -0.808288 0.50974 0.209689 0.834383 120 168 94
0.112583 -0.11 -0.81 0.471792 -0.0419859 0.880709 120 169 93
0.0962786 -0.12 -0.8 0.183425 0.0533111 0.981587 121 169 94
0.1 -0.12 -0.800643 0.180154 0.0542276 0.982143 121 169 94
0.11 -0.12 -0.802607 0.270277 0.171077 0.947461 119 168 93
0.12 -0.113615 -0.81 0.530186 0.513434 0.67475 119 168 91
0.12 -0.12 -0.805081 0.562632 0.153533 0.812326 119 168 91
0.0995551 -0.13 -0.8 0.356618 0.341702 0.869519 120 169 93
0.1 -0.13 -0.800183 0.354433 0.351344 0.866565 120 169 93
0.11 -0.13 -0.802565 0.28278 0.115791 0.95217 121 169 92
0.12 -0.13 -0.805748 0.575128 -0.009778 0.818005 118 167 91
0.123236 -0.12 -0.81 0.800332 0.122016 0.587011 117 167 89
0.123136 -0.13 -0.81 0.785748 -0.0021611 0.618543 117 167 89
0.1 -0.130431 -0.8 0.352315 0.365478 0.861568 121 169 93
0.11 -0.139314 -0.8 0.399673 0.243612 0.883694 118 167 90
0.110402 -0.14 -0.8 0.418892 0.248349 0.873414 116 166 89
0.12 -0.14 -0.804978 0.456451 0.222029 0.861601 116 166 89
0.117901 -0.15 -0.8 0.787186 -0.125536 0.603803 117 166 89
0.12 -0.15 -0.802659 0.693251 -0.335942 0.63761 117 166 89
0.116866 -0.16 -0.81 0.563718 -0.337801 0.753732 117 168 89
0.12 -0.155376 -0.81 0.3612 -0.477218 0.801123 117 168 89
0.116441 -0.16 -0.8 0.988638 -0.14433 0.0420091 117 168 89
0.13 -0.15 -0.803765 0.0319554 -0.781724 0.622805 116 165 88
0.13 -0.155279 -0.81 0.0050555 -0.519872 0.854229 116 165 88
0.12 -0.09 -0.814822 0.673061 -0.00990321 0.73952 120 168 93
0.12 -0.08 -0.812429 0.582762 -0.0996613 0.806509 120 168 93
0.125851 -0.08 -0.82 0.873712 -0.083611 0.479204 119 169 93
0.12539 -0.09 -0.82 0.803498 -0.0716419 0.590981 119 169 93
0.12 -0.1 -0.810795 0.476805 0.108371 0.872303 120 168 93
0.124734 -0.1 -0.82 0.818996 0.2582 0.512425 120 167 91
0.12 -0.11 -0.812751 0.475883 0.297643 0.827613 120 168 92
0.13 -0.108966 -0.82 0.789145 0.422004 0.446277 119 167 89
0.13 -0.11 -0.819037 0.759951 0.342962 0.552134 119 167 89
0.13 -0.12 -0.818169 0.682376 0.144073 0.716663 118 167 90
0.13 -0.13 -0.81656 0.67847 0.12353 0.724167 118 167 89
0.124818 -0.14 -0.81 0.613673 0.366893 0.699138 116 165 88
0.13 -0.14 -0.814456 0.601227 0.386973 0.699127 116 165 88
0.13 -0.145241 -0.81 0.548018 0.541832 0.637255 117 167 90
0.12 -0.16 -0.811571 0.326285 -0.304182 0.894992 117 168 89
0.13 -0.16 -0.811729 0.00561763 -0.339504 0.940588 117 167 90
0.127951 -0.09 -0.83 0.934212 -0.139412 0.328347 119 168 93
0.13 -0.0812703 -0.83 0.919558 -0.215833 0.328374 119 168 93
0.13 -0.08 -0.829165 0.913199 -0.215967 0.34558 119 168 93
0.57 -0.396392 -0.65 -0.0248673 0.999223 -0.0305842 128 128 126
0.56 -0.396635 -0.64 -0.0262969 0.999652 -0.00196879 128 128 126
0.57 -0.397578 -0.64 0.0576095 0.994956 0.082116 128 128 126
0.56 -0.397868 -0.65 -0.0989937 0.989616 -0.104213 128 128 126
0.58 -0.397328 -0.65 0.0269161 0.999184 0.0301127 116 116 114
0.58 -0.39709 -0.64 0.000393598 0.999983 0.00575555 116 116 114
0.59 -0.397233 -0.65 0.044546 0.997262 0.0590276 113 113 112
0.59 -0.398187 -0.64 0.0787187 0.99418 0.073542 113 113 112
0.6 -0.39815 -0.65 0.0698317 0.993906 0.0852873 120 120 118
0.6 -0.398256 -0.64 0.00692849 0.99992 0.0106296 120 120 118
0.57 -0.398209 -0.66 -0.0616984 0.997414 -0.0368676 124 125 124
0.56 -0.397825 -0.66 0.0450155 0.997756 0.0495736 124 125 124
0.58 -0.396781 -0.66 -0.0328294 0.999401 -0.0109226 136 137 135
0.59 -0.39692 -0.66 0.00234896 0.999957 0.00898525 127 128 126
0.6 -0.396956 -0.66 0.0689594 0.99731 0.0248532 113 113 113
0.57 -0.39739 -0.67 0.0176179 0.998051 0.0598671 119 119 118
0.56 -0.396736 -0.67 0.0447974 0.997179 0.0602213 119 119 118
0.58 -0.396937 -0.67 -0.0301611 0.999532 -0.00511791 137 137 136
0.59 -0.397181 -0.67 -0.00365053 0.999984 0.0042466 125 125 125
0.6 -0.396939 -0.67 0.0655166 0.997498 0.0265529 117 116 115
0.61 -0.398564 -0.67 0.133772 0.987976 0.0775208 116 115 114
0.61 -0.398501 -0.66 0.152614 0.988266 -0.00621156 116 115 114
0.57 -0.396858 -0.68 0.0260652 0.998923 0.0383983 128 128 128
0.56 -0.397018 -0.68 -0.0170304 0.999808 0.0097036 128 128 128
0.58 -0.397279 -0.68 -0.00127755 0.999999 0.000284124 128 128 127
0.59 -0.39691 -0.68 -0.0328417 0.999424 -0.00854089 117 117 115
0.6 -0.396473 -0.68 0.0239998 0.999507 0.0202493 123 123 121
0.61 -0.397617 -0.68 0.0840847 0.993393 0.0781033 115 114 112
0.62 -0.398 -0.68 0.100293 0.991792 0.0793099 120 119 118
0.62 -0.399908 -0.67 0.130934 0.973823 0.185811 120 119 118
0.57 -0.39636 -0.69 0.0198945 0.999476 0.0255175 132 133 131
0.56 -0.396561 -0.69 -0.0123698 0.999511 0.0287378 132 133 131
0.58 -0.39701 -0.69 0.0488163 0.998666 0.0168466 116 117 116
0.59 -0.397203 -0.69 -0.022578 0.999189 -0.0333441 121 122 121
0.6 -0.396749 -0.69 -0.0193273 0.999313 -0.0316266 113 114 113
0.61 -0.396822 -0.69 0.034645 0.999173 0.02128 123 123 122
0.62 -0.3974 -0.69 0.108351 0.991117 0.0771138 123 124 123
0.63 -0.399427 -0.69 0.013315 0.99729 0.0723575 116 116 115
0.63 -0.399584 -0.68 0.0225188 0.996671 0.078354 116 116 115
0.64 -0.397022 -0.69 -0.175858 0.984284 0.0160906 93 94 93
0.64 -0.399704 -0.68 0.0116167 0.965788 0.259071 93 94 93
0.57 -0.396396 -0.7 0.0251819 0.999644 0.00883446 125 125 124
0.56 -0.396289 -0.7 0.0108064 0.999662 0.023631 125 125 124
0.58 -0.396806 -0.7 0.0613252 0.998013 0.0144919 119 119 118
0.59 -0.39777 -0.7 0.015246 0.999842 0.00915805 116 116 114
0.6 -0.397113 -0.7 -0.0221048 0.999345 -0.0286624 121 121 119
0.61 -0.397142 -0.7 -0.0022685 0.998445 -0.0556998 120 121 119
0.62 -0.396829 -0.7 -0.000348509 0.999651 -0.0264152 109 109 109
0.63 -0.397483 -0.7 0.0986212 0.991649 0.0831055 120 119 118
0.64 -0.398072 -0.7 -0.0151655 0.999616 0.0231723 119 119 118
0.57 -0.396197 -0.71 0.0224069 0.998899 -0.0412082 126 127 126
0.56 -0.396086 -0.71 0.0324063 0.999027 -0.0299255 126 127 126
0.58 -0.396861 -0.71 0.0361886 0.99928 0.0114279 116 117 115
0.59 -0.397014 -0.71 0.0211772 0.998738 0.0455394 128 129 128
0.6 -0.397139 -0.71 0.0230012 0.999075 0.0363235 118 119 117
0.61 -0.397701 -0.71 0.0599885 0.998196 0.00247961 128 130 128
0.62 -0.398299 -0.71 -0.0429599 0.995638 -0.082827 120 120 119
0.63 -0.396638 -0.71 -0.00135284 0.998867 -0.0475777 126 126 124
0.64 -0.398058 -0.71 0.120072 0.992613 0.0173698 119 119 119
0.57 -0.397432 -0.72 -0.0110591 0.99478 -0.101442 128 130 127
0.56 -0.396463 -0.72 0.0963356 0.994641 -0.0375276 128 130 127
0.58 -0.396669 -0.72 -0.000334076 0.999867 -0.0162765 129 129 128
0.59 -0.39671 -0.72 -4.16064e-05 0.999619 0.0276077 125 126 124
0.6 -0.396612 -0.72 0.0225503 0.998638 0.0470457 123 123 122
0.61 -0.39705 -0.72 0.0890071 0.994127 0.0615526 124 125 123
0.62 -0.398348 -0.72 0.0430255 0.998998 0.0123558 118 120 118
0.63 -0.39827 -0.72 -0.0494869 0.991326 -0.121749 130 130 129
0.64 -0.398136 -0.72 0.0639608 0.994329 -0.0849675 129 129 128
0.49 -0.398235 -0.97 -0.00829782 0.999966 -0.000182602 142 151 136
0.48 -0.397912 -0.96 0.00447829 0.999603 -0.0278265 142 151 136
0.49 -0.397687 -0.96 -0.037363 0.997762 -0.0554506 142 151 136
0.48 -0.397921 -0.97 0.0269266 0.999358 0.023643 142 151 136
0.5 -0.397727 -0.97 -0.0193028 0.999102 -0.0377029 134 146 128
0.5 -0.397146 -0.96 -0.00872767 0.999121 -0.0409986 134 146 128
0.51 -0.397752 -0.97 0.018115 0.999545 -0.0241026 133 140 128
0.51 -0.397855 -0.96 0.0404015 0.999179 0.00294749 133 140 128
0.52 -0.397999 -0.97 0.0512755 0.998618 -0.0115561 138 147 131
0.52 -0.39781 -0.96 0.0381595 0.998987 -0.0238671 138 147 131
0.53 -0.398911 -0.97 0.0568915 0.998276 -0.0144601 139 148 133
0.53 -0.398522 -0.96 0.0605325 0.997786 -0.027539 139 148 133
0.54 -0.399187 -0.97 0.0524592 0.998581 -0.0091472 141 150 135
0.54 -0.39925 -0.96 0.0434343 0.999036 0.00631499 141 150 135
0.549643 -0.4 -0.97 0.0838844 0.994699 -0.0594825 143 151 137
0.55 -0.4 -0.969541 0.0669329 0.995652 -0.0647876 143 151 137
0.55 -0.399393 -0.96 0.0214646 0.998761 -0.0449012 143 151 137
0.553249 -0.4 -0.97 -0.00908837 0.998632 -0.0514899 143 151 137
0.56 -0.399938 -0.97 -0.00765702 0.999556 -0.0287957 143 151 137
0.56 -0.399397 -0.96 0.000377938 0.998543 -0.0539678 143 151 137
0.49 -0.397664 -0.98 0.0195564 0.99925 0.0334188 138 146 132
0.48 -0.397527 -0.98 0.0130484 0.999476 0.0296389 138 146 132
0.5 -0.397805 -0.98 0.0216098 0.999766 0.000432503 141 150 134
0.51 -0.398248 -0.98 0.0123589 0.999629 -0.0242513 137 147 131
0.52 -0.398171 -0.98 0.0374157 0.999133 -0.018241 130 140 123
0.53 -0.398857 -0.98 0.0488828 0.998734 -0.0118899 139 148 133
0.54 -0.399152 -0.98 0.0540056 0.99854 -0.000922533 140 149 134
0.55 -0.4 -0.973727 0.0250882 0.999654 0.00789388 137 146 131
0.55 -0.39995 -0.98 0.0346937 0.999395 0.00233501 137 146 131
0.56 -0.4 -0.978191 -0.00923056 0.999928 -0.00760691 144 152 138
0.557858 -0.4 -0.98 0.00644055 0.999978 0.00169807 144 152 138
0.49 -0.397452 -0.99 0.0270614 0.999572 0.0111159 140 151 135
0.48 -0.397341 -0.99 0.0174562 0.999706 0.0168082 140 151 135
0.5 -0.39787 -0.99 0.0421176 0.999113 -0.000303248 139 145 133
0.51 -0.398356 -0.99 0.0209247 0.999726 -0.0104858 142 149 135
0.52 -0.398223 -0.99 0.0429992 0.998805 -0.0232491 136 143 130
0.53 -0.399151 -0.99 0.0472931 0.998025 -0.0413558 137 144 131
0.54 -0.399215 -0.99 0.0363753 0.998881 -0.0302277 138 146 130
0.55 -0.399993 -0.99 0.0279315 0.999592 -0.00588879 140 146 133
0.550276 -0.4 -0.99 0.0263789 0.999633 -0.00617764 148 155 141
0.49 -0.397428 -1 0.0411129 0.998797 0.0267205 144 150 138
0.48 -0.397063 -1 0.0330596 0.998776 0.0367985 144 150 138
0.5 -0.397871 -1 0.048203 0.998783 0.0103957 139 150 133
0.51 -0.398391 -1 0.0366619 0.999315 0.00510437 138 145 132
0.52 -0.398565 -1 0.059328 0.998178 -0.0109554 141 150 134
0.53 -0.399727 -1 0.0631551 0.997885 -0.0153812 137 147 131
0.54 -0.399869 -1 0.0128123 0.999552 -0.0270484 139 148 133
0.55 -0.399967 -1 0.0196872 0.999804 -0.00192608 142 148 135
0.551795 -0.4 -1 0.0185238 0.999828 0.000646746 143 152 137
0.49 -0.396901 -1.01 0.0546906 0.997324 0.04852 142 151 137
0.48 -0.396672 -1.01 0.026424 0.998358 0.0508141 142 151 137
0.5 -0.39766 -1.01 0.0582677 0.997842 0.0302635 146 155 141
0.51 -0.398213 -1.01 0.0541619 0.998188 0.0262277 147 156 142
0.52 -0.398583 -1.01 0.06174 0.998064 -0.00757486 141 152 135
0.53 -0.399491 -1.01 0.0609001 0.998142 -0.00212347 139 150 133
0.54 -0.399742 -1.01 0.025069 0.99951 -0.0187637 140 150 135
0.55 -0.399982 -1.01 0.0696109 0.997531 -0.00926884 141 149 135
0.550258 -0.4 -1.01 0.0708679 0.997442 -0.00935053 144 152 137
0.49 -0.396345 -1.02 0.0624134 0.996499 0.0556322 146 159 141
0.48 -0.395974 -1.02 0.0401222 0.997566 0.0570201 146 159 141
0.5 -0.397408 -1.02 0.0696033 0.995913 0.0575531 145 156 139
0.51 -0.397703 -1.02 0.0702894 0.996487 0.0455293 145 155 139
0.52 -0.398756 -1.02 0.0899063 0.995657 0.024185 145 156 140
0.53 -0.399706 -1.02 0.0631481 0.997845 0.0178364 145 155 140
0.535764 -0.4 -1.02 0.0496149 0.998462 0.0247508 138 147 133
0.54 -0.4 -1.01566 0.0353109 0.998312 -0.0461222 138 147 133
0.55 -0.4 -1.01203 0.0408883 0.999101 -0.0111683 146 156 141
0.49 -0.395961 -1.03 0.0401043 0.998877 0.0252138 135 145 131
0.48 -0.395465 -1.03 0.0342752 0.999389 0.00688344 135 145 131
0.5 -0.396455 -1.03 0.0784139 0.995127 0.0597813 149 158 145
0.51 -0.397233 -1.03 0.077041 0.996485 0.0328878 141 154 137
0.52 -0.398291 -1.03 0.0911754 0.994303 0.0552093 142 154 137
0.53 -0.399142 -1.03 0.0599028 0.996078 0.0651229 147 157 142
0.54 -0.4 -1.02238 0.0297923 0.996479 0.0783757 143 152 137
0.54 -0.399377 -1.03 0.0232837 0.997877 0.0608263 143 152 137
0.55 -0.4 -1.02123 0.0196666 0.99796 0.0607323 146 154 141
0.55 -0.399466 -1.03 0.0345861 0.99833 0.0462771 146 154 141
0.55808 -0.4 -1.03 0.0656843 0.996826 0.0449786 145 155 139
0.49 -0.396026 -1.04 0.00314081 0.999757 -0.0218212 44 52 41
0.48 -0.396144 -1.04 -0.0116906 0.997639 -0.0676759 44 52 41
0.5 -0.3959 -1.04 0.079638 0.996035 0.0396462 98 112 96
0.51 -0.39733 -1.04 0.074106 0.99723 0.00633299 144 156 139
0.52 -0.39772 -1.04 0.0639675 0.997138 0.0403016 133 143 127
0.53 -0.398278 -1.04 0.0654489 0.994754 0.0786197 150 159 144
0.54 -0.39889 -1.04 0.0412049 0.997466 0.0579944 146 158 141
0.55 -0.399293 -1.04 0.0342446 0.999096 0.0251784 147 158 142
0.56 -0.4 -1.0332 0.0654115 0.997086 0.0392423 146 156 140
0.56 -0.399732 -1.04 0.0563158 0.997966 0.0298606 146 156 140
-0.172673 -0.33 -0.56 0.623649 -0.0574345 0.779592 131 133 132
-0.17 -0.33 -0.562132 0.622348 -0.0542272 0.78086 131 133 132
-0.17 -0.32 -0.561517 0.648251 -0.0570413 0.759287 131 133 132
-0.171758 -0.32 -0.56 0.652144 -0.0596551 0.755744 131 133 132
-0.16 -0.32641 -0.57 0.640385 -0.0217116 0.767747 131 133 132
-0.16 -0.32 -0.569824 0.628811 -0.0308759 0.776945 131 133 132
-0.160122 -0.33 -0.57 0.646011 -0.0273669 0.762838 131 133 132
-0.173733 -0.34 -0.56 0.614715 -0.0772624 0.784956 132 134 133
-0.17 -0.34 -0.562919 0.611028 -0.0758893 0.787963 132 134 133
-0.16078 -0.34 -0.57 0.616603 -0.0566463 0.785233 131 133 132
-0.175233 -0.35 -0.56 0.615742 -0.0620231 0.785503 132 134 133
-0.17 -0.35 -0.564104 0.605948 -0.0604801 0.793202 132 134 133
-0.161981 -0.35 -0.57 0.602218 -0.053171 0.796559 130 132 131
-0.175758 -0.36 -0.56 0.603653 0.0172518 0.797061 130 132 131
-0.17 -0.36 -0.564331 0.605222 0.01941 0.79582 130 132 131
-0.16258 -0.36 -0.57 0.615526 0.000864691 0.788116 131 133 132
-0.174809 -0.37 -0.56 0.505384 0.4999 0.70334 127 129 128
-0.17 -0.37 -0.563424 0.44943 0.683053 0.575717 127 129 128
-0.162062 -0.37 -0.57 0.535186 0.492418 0.686368 129 131 130
-0.17 -0.372318 -0.56 0.374703 0.780442 0.500507 129 131 130
-0.16 -0.371481 -0.57 0.436269 0.726467 0.530957 122 124 123
-0.16 -0.374592 -0.56 0.212141 0.933143 0.290243 122 124 123
-0.16 -0.33 -0.570103 0.646158 -0.0273401 0.762714 131 133 132
-0.16 -0.34 -0.570612 0.61641 -0.056854 0.78537 133 135 134
-0.16 -0.35 -0.571497 0.602589 -0.0534529 0.796259 131 133 132
-0.16 -0.36 -0.572025 0.617416 -0.00466568 0.786623 130 132 131
-0.16 -0.37 -0.571605 0.513771 0.547984 0.660116 129 131 130
0.65 -0.40183 -0.97 0.0418165 0.999088 0.00858764 141 144 138
0.64 -0.4013 -0.96 0.0342028 0.999238 -0.018811 141 144 138
0.65 -0.401558 -0.96 0.0412541 0.99897 -0.0188766 141 144 138
0.64 -0.401404 -0.97 0.0332324 0.999415 0.00811659 141 144 138
0.66 -0.402232 -0.97 0.0656916 0.997799 0.00904327 143 145 140
0.66 -0.402293 -0.96 0.0696363 0.997572 -0.000153688 143 145 140
0.67 -0.403019 -0.97 0.0625747 0.997948 -0.0135875 139 141 137
0.67 -0.402828 -0.96 0.0236603 0.998996 -0.0380316 139 141 137
0.68 -0.403338 -0.97 0.0275264 0.996878 -0.0740074 140 142 138
0.68 -0.402386 -0.96 -0.0254769 0.992255 -0.121575 140 142 138
0.69 -0.403816 -0.97 -0.0203488 0.994222 -0.105395 143 145 143
0.69 -0.401769 -0.96 0.018237 0.991052 -0.132226 143 145 143
0.7 -0.403377 -0.97 0.0021491 0.999787 0.0205198 139 140 138
0.7 -0.404234 -0.96 0.0820819 0.995148 0.0542529 139 140 138
0.71 -0.403249 -0.97 -0.0392695 0.999226 0.00248322 107 107 106
0.71 -0.402881 -0.96 -0.0901375 0.995771 -0.0177572 107 107 106
0.72 -0.402408 -0.97 -0.0647639 0.995695 -0.066312 88 90 88
0.72 -0.402792 -0.96 -0.00884741 0.999224 0.0383884 88 90 88
0.65 -0.401376 -0.98 0.0417746 0.999124 -0.00252814 137 141 133
0.64 -0.401324 -0.98 0.0109329 0.999918 -0.00665689 137 141 133
0.66 -0.401984 -0.98 0.0651747 0.997845 -0.00756524 134 137 132
0.67 -0.402951 -0.98 0.103243 0.994546 0.0148211 138 141 136
0.68 -0.404118 -0.98 0.0542067 0.998517 0.00509968 136 138 134
0.69 -0.404375 -0.98 -0.00528615 0.999389 0.0345415 145 147 144
0.7 -0.403207 -0.98 -0.0646696 0.99789 -0.00585569 139 140 136
0.71 -0.402652 -0.98 -0.00902394 0.999573 -0.0278068 77 78 76
0.72 -0.403762 -0.98 0.0462439 0.998222 -0.0376054 114 116 115
0.65 -0.401703 -0.99 0.0477962 0.998443 -0.0287589 138 142 137
0.64 -0.401424 -0.99 0.0213887 0.999079 -0.0371985 138 142 137
0.66 -0.402651 -0.99 0.054919 0.998299 -0.0195877 135 140 135
0.67 -0.402755 -0.99 0.0646261 0.997884 0.00713196 132 134 129
0.68 -0.404129 -0.99 0.0363817 0.997714 0.0569473 129 131 128
0.69 -0.403331 -0.99 -0.0364029 0.998087 0.0499814 131 133 128
0.7 -0.402911 -0.99 -0.00507896 0.999969 0.00602503 84 85 83
0.71 -0.403501 -0.99 0.0166039 0.999505 -0.0267057 108 109 107
0.72 -0.403654 -0.99 0.0391191 0.999233 0.00150925 142 144 141
0.65 -0.402219 -1 0.0183159 0.998413 -0.0532465 135 140 132
0.64 -0.402201 -1 0.00704486 0.998782 -0.0488261 135 140 132
0.66 -0.402325 -1 0.0398721 0.998535 -0.0365763 141 144 139
0.67 -0.402975 -1 0.00757625 0.999895 -0.0123613 143 146 141
0.68 -0.402794 -1 0.0137813 0.997708 0.0662424 119 122 119
0.69 -0.402882 -1 0.0218463 0.998482 0.0505529 89 92 89
0.7 -0.403358 -1 0.0273178 0.99957 -0.0106352 86 88 85
0.71 -0.403599 -1 -0.00470801 0.999905 -0.012945 132 134 132
0.72 -0.403254 -1 -0.0220373 0.999638 0.0154466 133 136 132
0.65 -0.402527 -1.01 0.0392185 0.998836 -0.028083 141 147 140
0.64 -0.402298 -1.01 0.0362217 0.999196 -0.0171934 141 147 140
0.66 -0.403346 -1.01 0.0275261 0.99936 -0.0228396 141 146 140
0.67 -0.403318 -1.01 -0.0321479 0.999479 -0.00294532 136 141 132
0.68 -0.40242 -1.01 -0.0301644 0.99948 0.0114269 111 114 109
0.69 -0.402446 -1.01 0.0314104 0.99925 0.0226341 81 83 80
0.7 -0.403294 -1.01 0.0599178 0.997027 0.0484453 125 127 123
0.71 -0.40375 -1.01 -0.00519476 0.999548 0.0296013 131 133 130
0.72 -0.403096 -1.01 -0.0575614 0.998263 0.0125723 131 133 130
0.65 -0.403042 -1.02 0.0223684 0.999117 -0.0355593 138 146 135
0.64 -0.402278 -1.02 0.0742597 0.996912 -0.0255441 138 146 135
0.66 -0.403027 -1.02 -0.00618698 0.999854 0.0159229 145 150 143
0.67 -0.402753 -1.02 -0.0219653 0.999283 0.0308408 122 126 119
0.68 -0.402301 -1.02 -0.00803868 0.999804 -0.0180982 80 83 78
0.69 -0.40267 -1.02 -0.00498004 0.999488 -0.0315983 114 117 111
0.7 -0.402485 -1.02 0.0203292 0.999116 0.0367946 131 134 130
0.71 -0.40291 -1.02 0.0263467 0.998061 0.0563908 136 138 134
0.72 -0.402848 -1.02 -0.0209801 0.999609 0.0185091 135 137 133
0.65 -0.403538 -1.03 0.0071344 0.999968 0.00365144 143 151 139
0.64 -0.402851 -1.03 0.0473719 0.99877 -0.0146116 143 151 139
0.66 -0.402863 -1.03 -0.0438044 0.999006 0.00831886 135 142 131
0.67 -0.402414 -1.03 0.00172563 0.999934 0.0113817 90 95 88
0.68 -0.402861 -1.03 0.0404889 0.998908 -0.0233205 105 110 103
0.69 -0.403363 -1.03 -0.017883 0.998055 -0.0597225 134 139 132
0.7 -0.402386 -1.03 -0.0466613 0.998036 -0.0418065 136 138 134
0.71 -0.402454 -1.03 0.0316035 0.999299 0.0200798 137 139 136
0.72 -0.40302 -1.03 0.040845 0.998915 0.0223665 132 134 131
0.65 -0.402836 -1.04 0.00214901 0.9988 0.0489243 131 140 125
0.64 -0.402994 -1.04 -0.0157738 0.999774 -0.0142483 131 140 125
0.66 -0.402615 -1.04 -0.0286481 0.998939 0.03606 99 105 94
0.67 -0.402489 -1.04 0.00651066 0.999979 0.00063316 97 104 95
0.68 -0.402906 -1.04 0.063861 0.997945 -0.00528469 141 146 138
0.69 -0.403755 -1.04 0.0139726 0.999435 -0.0305669 135 139 132
0.7 -0.403362 -1.04 -0.0763753 0.993672 -0.0823584 136 139 134
0.71 -0.402508 -1.04 -0.00924775 0.999555 -0.0283478 138 140 137
0.72 -0.402714 -1.04 0.0385561 0.999177 0.0126107 138 140 137
0.41 -0.391897 -0.49 0.0123113 0.998183 -0.0589762 112 112 110
0.4 -0.390977 -0.48 0.0416786 0.997873 -0.0501225 112 112 110
0.41 -0.391619 -0.48 0.00748235 0.999268 -0.0375043 112 112 110
0.4 -0.391704 -0.49 0.0234174 0.997939 -0.0597447 112 112 110
0.42 -0.391601 -0.49 0.00796547 0.996596 -0.0820511 125 125 123
0.42 -0.390932 -0.48 0.0262819 0.99818 -0.0542699 125 125 123
0.43 -0.392579 -0.49 0.0479805 0.998829 -0.00619464 118 117 115
0.43 -0.392419 -0.48 0.0750388 0.997165 -0.00565667 118 117 115
0.44 -0.392409 -0.49 0.0421395 0.999087 0.00709411 128 128 126
0.44 -0.392656 -0.48 0.0506468 0.998496 0.021015 128 128 126
0.45 -0.393261 -0.49 0.00571867 0.999955 -0.00755353 121 121 119
0.45 -0.393361 -0.48 -0.0113198 0.999932 0.00290238 121 121 119
0.46 -0.392468 -0.49 -0.0622263 0.997922 -0.0167197 134 134 132
0.46 -0.392283 -0.48 -0.0366943 0.999326 0.000463985 134 134 132
0.47 -0.392428 -0.49 0.0330464 0.99845 0.0447781 135 135 135
0.47 -0.392997 -0.48 0.0425471 0.997692 0.0529205 135 135 135
0.48 -0.392646 -0.49 0.0179377 0.999821 0.00610253 103 103 104
0.48 -0.393061 -0.48 0.00634828 0.999121 0.0414395 103 103 104
0.41 -0.392451 -0.5 0.0538177 0.998432 -0.0153973 117 117 115
0.4 -0.392091 -0.5 0.056667 0.997762 0.0355043 117 117 115
0.42 -0.39311 -0.5 -0.00504871 0.999538 -0.0299773 121 121 119
0.43 -0.392385 -0.5 -0.0309216 0.99952 0.00215718 117 117 115
0.44 -0.392349 -0.5 0.0417152 0.999061 0.0117222 124 123 121
0.45 -0.393455 -0.5 0.0399626 0.999 0.020056 115 115 113
0.46 -0.393036 -0.5 -0.0701562 0.996399 -0.047625 117 117 116
0.47 -0.391614 -0.5 -0.00205084 0.998498 -0.0547487 115 115 115
0.48 -0.393016 -0.5 0.109514 0.993922 -0.0112674 48 48 49
0.41 -0.392303 -0.51 0.0622442 0.997874 0.0193027 135 135 133
0.4 -0.391527 -0.51 0.0566379 0.998385 0.00443478 135 135 133
0.42 -0.393073 -0.51 0.0211667 0.999414 0.0268876 131 131 129
0.43 -0.392517 -0.51 -0.0396916 0.998969 -0.022041 122 122 120
0.44 -0.392213 -0.51 0.00518731 0.999765 -0.02103 106 106 104
0.45 -0.392735 -0.51 0.0447735 0.998357 0.0357679 110 110 109
0.46 -0.393056 -0.51 0.0399818 0.998931 0.0232093 112 112 110
0.47 -0.393604 -0.51 -0.00377283 0.997155 -0.0752858 45 44 45
0.48 -0.393463 -0.51 0.024012 0.997789 -0.0619716 99 99 99
0.41 -0.392361 -0.52 0.0281061 0.999368 0.0217432 126 126 124
0.4 -0.392421 -0.52 -0.0566139 0.997631 -0.0390796 126 126 124
0.42 -0.392358 -0.52 0.0237826 0.999707 0.00447758 132 132 130
0.43 -0.392762 -0.52 0.0152023 0.999872 -0.00499461 115 115 112
0.44 -0.392885 -0.52 -0.0120889 0.999394 -0.0326327 118 118 116
0.45 -0.392682 -0.52 0.00854002 0.999862 -0.0142282 101 101 100
0.46 -0.39264 -0.52 0.0472644 0.998658 -0.0211557 53 53 54
0.47 -0.393655 -0.52 0.038657 0.999066 -0.0192982 115 115 115
0.48 -0.393497 -0.52 -0.0153981 0.999417 -0.0304819 130 130 128
0.41 -0.391232 -0.53 -0.0126523 0.999756 -0.0181007 130 131 129
0.4 -0.393334 -0.53 -0.156479 0.985755 -0.0616606 130 131 129
0.42 -0.392906 -0.53 0.062709 0.998008 -0.0068534 121 121 119
0.43 -0.39284 -0.53 0.00634837 0.999832 -0.0171831 121 121 119
0.44 -0.39303 -0.53 -0.0052452 0.999978 -0.00399857 107 107 106
0.45 -0.392603 -0.53 0.0210326 0.999688 -0.0134884 70 69 70
0.46 -0.393504 -0.53 0.0627447 0.997529 -0.0316012 72 71 72
0.47 -0.394068 -0.53 0.0450369 0.998091 -0.0422576 115 116 114
0.48 -0.394065 -0.53 -0.00416711 0.997187 -0.0748393 130 130 128
0.41 -0.392593 -0.54 -0.0179982 0.99873 -0.0470671 135 136 134
0.4 -0.392702 -0.54 0.0202077 0.998059 0.0589034 135 136 134
0.42 -0.392817 -0.54 0.0314554 0.999468 -0.00866667 123 124 121
0.43 -0.393103 -0.54 0.0136144 0.999802 0.0145447 119 119 118
0.44 -0.392834 -0.54 -0.00376413 0.999796 -0.0198456 79 79 80
0.45 -0.393 -0.54 0.0104324 0.999908 -0.00870181 60 60 60
0.46 -0.393482 -0.54 0.06908 0.996928 0.0369104 125 124 123
0.47 -0.39416 -0.54 0.0774346 0.996785 0.0205745 111 110 108
0.48 -0.395078 -0.54 0.0686315 0.997641 -0.00171613 113 113 111
0.41 -0.392668 -0.55 0.052767 0.998598 -0.00424851 133 134 131
0.4 -0.391522 -0.55 0.0908497 0.995729 0.0164215 133 134 131
0.42 -0.392959 -0.55 -0.012677 0.999711 -0.0204064 131 132 130
0.43 -0.392288 -0.55 0.0118844 0.999817 0.0149776 113 114 113
0.44 -0.393401 -0.55 0.049704 0.998581 0.0191087 53 53 53
0.45 -0.393216 -0.55 -0.0385057 0.998103 -0.0480312 112 113 112
0.46 -0.392535 -0.55 0.0253892 0.999613 0.0113814 113 112 111
0.47 -0.393697 -0.55 0.0780483 0.994978 0.0626699 103 102 101
0.48 -0.394562 -0.55 0.087017 0.990503 0.106454 118 117 115
0.41 -0.393051 -0.56 0.0361211 0.99746 -0.0613959 122 123 120
0.4 -0.39284 -0.56 0.0208761 0.99121 -0.130642 122 123 120
0.42 -0.393101 -0.56 0.00328686 0.99979 -0.020209 134 135 133
0.43 -0.392996 -0.56 -0.0508969 0.99711 -0.0564065 49 50 49
0.44 -0.392362 -0.56 0.0858747 0.994542 0.0592531 116 118 117
0.45 -0.393869 -0.56 -0.000381451 0.999725 -0.0234477 119 119 117
0.46 -0.393212 -0.56 -0.0262475 0.997416 -0.0668752 111 111 109
0.47 -0.393354 -0.56 0.00908112 0.999921 0.00874181 108 108 106
0.48 -0.392885 -0.56 0.0188258 0.99485 0.0995923 122 121 119
0.57 -0.397868 -0.73 0.0535887 0.998128 -0.0294705 131 131 129
0.56 -0.396463 -0.72 0.113441 0.993203 -0.0260424 131 131 129
0.57 -0.397432 -0.72 0.0227854 0.998154 -0.056303 131 131 129
0.56 -0.396553 -0.73 0.117169 0.992816 -0.0242337 131 131 129
0.58 -0.397617 -0.73 -0.0499149 0.996392 -0.0686404 132 132 130
0.58 -0.396669 -0.72 -0.0521589 0.995601 -0.0778331 132 132 130
0.59 -0.396999 -0.73 -0.022053 0.998311 -0.0537398 121 123 122
0.59 -0.39671 -0.72 -0.00218725 0.99956 -0.0295765 121 123 122
0.6 -0.396927 -0.73 0.0115956 0.998949 -0.0443449 114 116 114
0.6 -0.396612 -0.72 0.0209662 0.999149 -0.0355085 114 116 114
0.61 -0.397526 -0.73 0.00988538 0.999516 -0.0295103 126 127 125
0.61 -0.39705 -0.72 0.0338099 0.999418 0.00452165 126 127 125
0.62 -0.396719 -0.73 0.0260373 0.99966 -0.00163871 119 120 118
0.62 -0.398348 -0.72 0.0901822 0.98752 0.129115 119 120 118
0.63 -0.397893 -0.73 0.0830839 0.995401 0.0476771 115 116 114
0.63 -0.39827 -0.72 0.0206425 0.999767 0.00634162 115 116 114
0.64 -0.399012 -0.73 0.0799197 0.99574 0.0459777 125 126 125
0.64 -0.398136 -0.72 -0.0133468 0.996095 -0.0872767 125 126 125
0.57 -0.397998 -0.74 0.0681019 0.997591 0.0131683 133 134 131
0.56 -0.397217 -0.74 0.0635399 0.997952 -0.00733608 133 134 131
0.58 -0.398182 -0.74 -0.026158 0.998899 -0.0389428 130 132 129
0.59 -0.39754 -0.74 -0.0253505 0.998743 -0.0432332 120 121 119
0.6 -0.397797 -0.74 -0.00847273 0.998892 -0.0462827 125 125 124
0.61 -0.397239 -0.74 0.0356815 0.998575 -0.0396939 119 119 118
0.62 -0.398207 -0.74 0.00809298 0.995872 -0.0904019 114 115 115
0.63 -0.397927 -0.74 0.000386591 0.998873 -0.0474528 121 121 121
0.64 -0.397827 -0.74 0.0201828 0.999792 -0.00300123 125 125 124
0.57 -0.397199 -0.75 0.0915247 0.995493 0.0248467 128 129 126
0.56 -0.39699 -0.75 0.01187 0.999912 0.00600004 128 129 126
0.58 -0.398465 -0.75 0.0159776 0.999278 -0.0344771 129 130 127
0.59 -0.397988 -0.75 -0.0295436 0.998926 -0.0357018 121 121 119
0.6 -0.397729 -0.75 0.0121714 0.99865 -0.0504962 126 127 126
0.61 -0.398015 -0.75 0.0557373 0.994501 -0.0886608 119 119 119
0.62 -0.399067 -0.75 0.00164548 0.996612 -0.0822343 128 129 128
0.63 -0.398456 -0.75 -0.0315024 0.99942 -0.0129219 118 119 119
0.64 -0.398456 -0.75 -0.0024773 0.999988 0.0041298 127 128 126
0.57 -0.397126 -0.76 0.0936637 0.995006 0.0344934 120 122 119
0.56 -0.397278 -0.76 -0.0217109 0.999756 0.00414875 120 122 119
0.58 -0.39933 -0.76 0.0577217 0.998257 0.0122913 123 124 121
0.59 -0.39811 -0.76 -0.0317332 0.998884 -0.0349752 113 115 113
0.6 -0.398594 -0.76 0.0492391 0.997919 -0.0416369 118 119 117
0.61 -0.399238 -0.76 0.0645141 0.996425 -0.0545373 122 123 122
0.618145 -0.4 -0.76 0.0917459 0.995358 -0.0290667 119 120 118
0.62 -0.4 -0.758489 -0.0523072 0.992481 -0.110658 119 120 118
0.620849 -0.4 -0.76 -0.190669 0.974121 -0.121384 130 131 130
0.63 -0.398206 -0.76 -0.124591 0.987466 -0.0968932 130 131 130
0.64 -0.397794 -0.76 -0.0308957 0.999501 -0.00650485 126 127 126
0.57 -0.396624 -0.77 0.0242632 0.999574 -0.0162052 126 128 125
0.56 -0.397035 -0.77 -0.00748433 0.999819 -0.0174768 126 128 125
0.58 -0.397965 -0.77 0.1152 0.989549 0.0867339 129 130 127
0.59 -0.398599 -0.77 0.0100272 0.999878 0.0119861 123 124 122
0.6 -0.398707 -0.77 0.0471801 0.998717 0.018402 125 126 124
0.61 -0.399528 -0.77 0.0408268 0.998923 0.022032 116 117 116
0.62 -0.4 -0.762314 0.0873998 0.993677 0.0704744 122 123 122
0.62 -0.399455 -0.77 0.0505645 0.996775 0.0623104 122 123 122
0.63 -0.4 -0.768477 -0.200594 0.958456 -0.202789 120 122 120
0.626318 -0.4 -0.77 0.0850975 0.988867 0.122065 120 122 120
0.631522 -0.4 -0.77 -0.19462 0.980005 -0.0413972 122 122 121
0.64 -0.39838 -0.77 -0.11521 0.992666 -0.0366105 122 122 121
0.57 -0.397891 -0.78 -0.00187218 0.994729 -0.102526 127 128 126
0.56 -0.396957 -0.78 0.10499 0.993756 -0.037755 127 128 126
0.58 -0.397218 -0.78 0.0309276 0.999072 -0.0299686 120 122 120
0.59 -0.398411 -0.78 0.0440982 0.99849 0.0327563 126 128 126
0.6 -0.398209 -0.78 0.0167726 0.99928 0.0340207 121 122 121
0.61 -0.398721 -0.78 0.0565605 0.997165 0.0496244 124 126 124
0.62 -0.399118 -0.78 0.00830529 0.999947 0.00604486 124 126 125
0.63 -0.4 -0.772151 -0.0766818 0.987141 0.140258 119 119 118
0.63 -0.398849 -0.78 -0.0295423 0.999531 0.00801751 119 119 118
0.64 -0.398708 -0.78 -0.0141344 0.998467 -0.0535051 119 120 118
0.57 -0.398985 -0.79 0.0609214 0.997722 -0.0289769 137 139 136
0.56 -0.397557 -0.79 0.0731353 0.995674 -0.05731 137 139 136
0.58 -0.398466 -0.79 -0.0509513 0.993136 -0.105283 130 131 129
0.59 -0.398041 -0.79 -0.0107203 0.999398 -0.0329914 123 124 122
0.6 -0.397999 -0.79 0.0120001 0.999923 0.00328349 132 133 131
0.61 -0.398307 -0.79 0.0620625 0.998003 0.0117535 121 122 120
0.62 -0.399296 -0.79 0.0642217 0.997932 0.00255731 129 130 128
0.63 -0.39965 -0.79 -0.00121213 0.999164 -0.0408528 132 132 130
0.64 -0.399453 -0.79 -0.0182976 0.998893 -0.04334 134 136 134
0.57 -0.398144 -0.8 0.0650969 0.997782 0.0139304 130 132 128
0.56 -0.399524 -0.8 -0.134124 0.972336 -0.19124 130 132 128
0.58 -0.399422 -0.8 -0.011214 0.998647 -0.0507852 128 130 127
0.59 -0.398821 -0.8 -0.0579797 0.994941 -0.0820426 128 130 127
0.6 -0.398169 -0.8 0.00094848 0.999481 -0.0321937 124 125 123
0.61 -0.398534 -0.8 0.0459662 0.998716 -0.0212808 131 133 131
0.62 -0.399119 -0.8 0.0757228 0.9971 0.00760181 126 128 126
0.63 -0.39985 -0.8 0.0119851 0.999871 -0.0106529 136 136 134
0.64 -0.399549 -0.8 -0.0248918 0.99958 -0.0148496 131 132 132
0.97 -0.407907 -1.45 0.169317 0.979922 0.105281 134 138 135
0.96 -0.407403 -1.44 0.177794 0.975633 0.128565 134 138 135
0.97 -0.409973 -1.44 0.131588 0.970813 0.200517 134 138 135
0.96 -0.406789 -1.45 0.118445 0.991719 0.0496386 134 138 135
0.970204 -0.41 -1.44 0.129825 0.971317 0.199222 138 141 140
0.979443 -0.41 -1.45 0.211614 0.971118 0.110225 138 141 140
1 -0.41 -1.44232 -0.0447074 0.992845 -0.110726 142 144 145
0.993274 -0.41 -1.44 -0.0381081 0.993161 -0.110355 142 144 145
1 -0.409732 -1.44 -0.0513543 0.991107 -0.122755 142 144 145
1.01 -0.407868 -1.44 -0.154589 0.958767 -0.238471 140 141 143
1.01 -0.41 -1.44725 -0.153663 0.944167 -0.291437 140 141 143
1.01368 -0.41 -1.45 -0.226695 0.940298 -0.253869 138 139 142
1.02 -0.408488 -1.45 -0.135571 0.976783 -0.165881 138 139 142
1.02 -0.407752 -1.44 0.00273855 0.999331 -0.0364822 138 139 142
1.03 -0.407917 -1.45 0.00322392 0.998257 -0.0589369 137 138 141
1.03 -0.408666 -1.44 0.0577352 0.997183 0.0478919 137 138 141
1.04 -0.4087 -1.45 0.0514019 0.998616 0.011148 96 97 101
1.04 -0.408381 -1.44 -0.0284829 0.999088 -0.0318207 96 97 101
0.98 -0.410121 -1.45 0.201091 0.973589 0.108109 133 137 135
0.98 -0.410892 -1.44 0.035386 0.998162 0.0492053 133 137 135
0.99 -0.410472 -1.45 0.0180821 0.999623 0.0206461 138 142 142
0.99 -0.410123 -1.44 -0.0397853 0.997201 -0.0633055 138 142 142
1 -0.410742 -1.45 0.00480723 0.99888 -0.0470721 147 149 151
1.01 -0.410907 -1.45 -0.154876 0.949769 -0.271941 117 118 121
0.97 -0.407671 -1.46 0.130695 0.98636 0.100065 129 134 130
0.96 -0.406251 -1.46 0.182564 0.97112 0.153609 129 134 130
0.98 -0.41 -1.45114 0.175749 0.978891 0.104331 136 138 137
0.98 -0.408975 -1.46 0.140953 0.983433 0.113978 136 138 137
0.99 -0.41 -1.45999 0.0234187 0.998001 0.0587053 137 140 139
0.99 -0.41 -1.46 0.0234152 0.998001 0.0586974 137 140 139
0.990015 -0.41 -1.46 0.0233894 0.998005 0.0586405 141 142 144
1.02 -0.41 -1.45838 -0.124352 0.967267 -0.221205 138 140 141
