ply
format ascii 1.0
comment Generated by the ZED SDK.
element vertex 815
property float32 x
property float32 y
property float32 z
property float32 nx
property float32 ny
property float32 nz
property uchar red
property uchar green
property uchar blue
end_header
1.84 -0.24 -0.511083 -0.582206 0.646374 -0.49319 27 27 27
1.87502 -0.24 -0.56 -0.812602 -0.0417365 -0.581323 27 27 28
1.76 -0.32 -0.485594 -0.458079 0.379417 -0.803869 29 29 29
1.84 -0.32 -0.526927 -0.432819 0.099311 -0.895994 29 29 29
1.90865 -0.32 -0.56 -0.495134 -0.149609 -0.855838 30 30 30
1.76 -0.4 -0.497972 -0.357993 0.137405 -0.923559 35 35 35
1.84 -0.4 -0.531139 -0.370987 0.0929412 -0.923975 36 36 36
1.91728 -0.4 -0.56 -0.510515 0.0470873 -0.858578 37 37 37
1.76 -0.48 -0.511949 -0.389854 -0.0381771 -0.920085 33 33 33
1.84 -0.48 -0.541594 -0.343238 0.00668733 -0.939225 35 34 34
1.89338 -0.48 -0.56 -0.374382 0.00549026 -0.927258 36 36 36
1.76 -0.56 -0.49048 -0.441492 -0.283797 -0.851202 34 35 34
1.84 -0.56 -0.529782 -0.389176 -0.169703 -0.905397 34 34 34
1.91662 -0.56 -0.56 -0.391024 -0.163546 -0.905733 37 36 36
1.84 -0.64 -0.51276 -0.444343 -0.222722 -0.867729 37 37 37
1.92 -0.567814 -0.56 -0.386727 -0.167278 -0.906896 37 38 37
1.92 -0.64 -0.547925 -0.376892 -0.170419 -0.910445 37 38 37
1.44978 -0 -0.64 -0.480721 -0.831779 0.277581 124 151 190
1.52 -0.0405812 -0.64 -0.413616 -0.804473 0.426315 124 151 190
1.57038 -0.08 -0.64 -0.305062 -0.718134 0.625477 126 155 198
1.6 -0.08 -0.625552 -0.266637 -0.815494 0.513688 126 155 198
1.68 -0.08 -0.583255 -0.272747 -0.809115 0.520522 124 154 197
1.6 -0.088408 -0.64 -0.242101 -0.83904 0.487237 27 26 36
1.68 -0.110861 -0.64 -0.246991 -0.859606 0.447295 28 26 37
1.76 -0.129862 -0.64 -0.209026 -0.907116 0.365306 30 30 38
1.84 -0.147733 -0.64 -0.28578 -0.944786 0.16034 31 31 39
1.89916 -0.16 -0.64 -0.597133 -0.70468 -0.383221 32 32 38
1.92 -0.24 -0.593966 -0.54733 -0.401567 -0.734285 33 33 33
1.92 -0.182098 -0.64 -0.534281 -0.513096 -0.671771 33 33 33
1.92 -0.32 -0.56647 -0.488471 -0.166847 -0.85648 38 38 38
1.92 -0.4 -0.56164 -0.514805 0.0464147 -0.85605 47 47 47
1.92 -0.48 -0.571525 -0.397262 -0.00153711 -0.917704 47 47 47
1.92 -0.56 -0.561466 -0.392285 -0.164678 -0.904983 48 48 48
-0.56 -0.989052 -0.08 0.000354155 0.999993 0.00371235 97 94 95
-0.64 -0.987267 -0 0.0318152 0.999449 0.00951522 97 94 95
-0.56 -0.990053 -0 0.000637531 0.999999 0.00117309 97 94 95
-0.64 -0.986744 -0.08 0.00647617 0.999522 -0.030221 97 94 95
-0.48 -0.988181 -0.08 -0.0364361 0.999206 0.0161057 122 121 122
-0.48 -0.985548 -0 -0.0534482 0.99801 -0.0334661 122 121 122
-0.4 -0.984215 -0.08 -0.0406201 0.999167 -0.00380596 128 127 127
-0.4 -0.981384 -0 -0.0347244 0.999307 -0.0134213 128 127 127
-0.32 -0.979307 -0.08 -0.00922486 0.999941 -0.00569923 111 107 108
-0.32 -0.98349 -0 0.0120755 0.999477 0.0300019 111 107 108
-0.24 -0.982697 -0.08 0.000377974 0.999992 0.00408911 115 114 115
-0.24 -0.979758 -0 -0.0434711 0.997938 -0.0472124 115 114 115
-0.16 -0.98115 -0.08 -0.0375087 0.998935 0.0268622 112 111 111
-0.16 -0.974826 -0 -0.0336675 0.998097 -0.0516713 112 111 111
-0.08 -0.97632 -0.08 -0.0556461 0.997998 -0.0300439 113 112 112
-0.08 -0.978685 -0 -0.0178674 0.999143 0.0373357 113 112 112
0 -0.968304 -0.08 -0.0918216 0.994957 -0.0403556 104 103 103
0 -0.973179 -0 -0.0685417 0.995801 0.0606817 104 103 103
-0.16 -0.959865 -0.16 0.0440415 0.998432 -0.0345512 102 101 101
-0.160641 -0.96 -0.16 -0.206024 0.978439 -0.0145317 102 101 101
-0.16 -0.96 -0.159434 0.023137 0.972464 0.231903 102 101 101
-0.159475 -0.96 -0.16 0.248469 0.968475 -0.0178354 103 101 102
-0.56 -0.990842 -0.16 -0.0571264 0.998155 -0.0205622 111 109 111
-0.64 -0.99576 -0.16 -0.0555371 0.997526 -0.0430988 111 109 111
-0.48 -0.983962 -0.16 -0.0494869 0.998745 -0.00769234 134 133 134
-0.4 -0.979622 -0.16 -0.0189148 0.999795 -0.00722292 108 107 107
-0.32 -0.98438 -0.16 -0.0163593 0.999583 0.0237842 124 124 125
-0.24 -0.980884 -0.16 -0.0634695 0.996549 0.0534886 121 119 119
-0.08 -0.979603 -0.16 0.0543538 0.997746 -0.0393522 108 107 107
0 -0.978493 -0.16 -0.0351172 0.996792 -0.0719184 116 115 116
-0.16 -0.96 -0.16049 0.0260944 0.963804 -0.265331 111 109 109
-0.56 -0.989723 -0.24 -0.0356788 0.99929 0.0121345 128 127 128
-0.64 -0.992796 -0.24 -0.0593697 0.9982 0.0085274 128 127 128
-0.48 -0.986134 -0.24 -0.0225681 0.999542 -0.0201796 136 135 136
-0.4 -0.988906 -0.24 -0.0526821 0.998388 -0.0211151 107 106 106
-0.32 -0.979371 -0.24 -0.0665092 0.9959 0.0613134 118 115 116
-0.24 -0.969885 -0.24 -0.00635857 0.999808 -0.0185346 115 113 114
-0.16 -0.978298 -0.24 0.0611843 0.994349 -0.0867556 119 119 119
-0.08 -0.986091 -0.24 0.0332944 0.998577 -0.0416519 124 122 123
0 -0.983333 -0.24 -0.0293026 0.998645 -0.043014 118 118 118
-0.32 -0.958619 -0.32 0.00403399 0.993796 -0.111141 116 113 114
-0.325761 -0.96 -0.32 -0.238299 0.969307 -0.0604835 116 113 114
-0.32 -0.96 -0.312666 0.00399247 0.981468 0.191584 116 113 114
-0.31434 -0.96 -0.32 0.241669 0.968428 -0.0611854 85 84 84
-0.56 -0.987951 -0.32 -0.0452384 0.997999 -0.0441813 131 131 131
-0.64 -0.997778 -0.32 -0.0504137 0.998658 -0.011834 131 131 131
-0.48 -0.989995 -0.32 -0.0228421 0.998846 -0.0422431 119 118 118
-0.4 -0.984857 -0.32 -0.118361 0.992134 -0.0407631 122 120 121
-0.24 -0.983994 -0.32 0.0728696 0.992647 -0.0966583 97 95 96
-0.16 -0.98644 -0.32 0.0118768 0.998411 -0.0550828 118 115 115
-0.08 -0.985954 -0.32 0.00257894 0.999816 0.0190167 116 114 114
0 -0.984564 -0.32 -0.0216544 0.99949 0.0234649 109 109 109
-0.32 -0.96 -0.324504 0.00341755 0.954723 -0.297475 45 44 45
-0.56 -0.996452 -0.4 0.0348831 0.99904 -0.0265151 38 37 40
-0.64 -0.98283 -0.4 0.178655 0.978978 0.0984043 38 37 40
-0.48 -0.993481 -0.4 -0.028076 0.998313 -0.0508221 126 126 126
-0.4 -0.991676 -0.4 -0.0269023 0.998784 -0.0413036 116 115 115
-0.32 -0.989827 -0.4 -0.0188454 0.993316 -0.113875 122 120 121
-0.24 -0.988761 -0.4 -0.0239945 0.999622 -0.0133963 100 98 99
-0.16 -0.98722 -0.4 -0.0422158 0.998749 0.026815 115 115 115
-0.08 -0.980753 -0.4 -0.0285538 0.998261 0.0515628 114 112 113
0 -0.980254 -0.4 -0.00900518 0.999088 0.0417448 102 101 100
-0.56 -0.997022 -0.48 0.0996886 0.994825 0.0196483 134 134 134
-0.64 -0.979603 -0.48 0.156403 0.987327 -0.0269034 134 134 134
-0.48 -0.997866 -0.48 -0.0243057 0.999704 0.00120542 36 35 37
-0.4 -0.992154 -0.48 -0.0404684 0.999005 -0.0187315 120 120 120
-0.32 -0.990995 -0.48 -0.0296347 0.999543 -0.00599305 118 116 116
-0.24 -0.987374 -0.48 -0.0572763 0.998358 -0.00071097 111 109 109
-0.16 -0.98089 -0.48 -0.0629869 0.997877 0.0165429 118 117 117
-0.08 -0.975317 -0.48 -0.0196779 0.999766 0.00902988 115 115 115
0 -0.97832 -0.48 0.0265705 0.999639 0.00403402 113 114 113
-0.56 -0.995129 -0.56 0.00360565 0.999582 -0.0286757 129 128 129
-0.64 -0.996842 -0.56 -0.0167542 0.993923 -0.108795 129 128 129
-0.48 -0.992323 -0.56 -0.00549042 0.999844 0.0168125 124 123 123
-0.4 -0.994302 -0.56 -0.0158238 0.999874 -0.00141285 38 38 38
-0.32 -0.990754 -0.56 -0.0421478 0.999015 -0.0138628 115 114 112
-0.24 -0.987957 -0.56 -0.0441581 0.999019 -0.00324167 110 109 108
-0.16 -0.982589 -0.56 -0.050779 0.998089 -0.035208 119 119 118
-0.08 -0.979894 -0.56 -0.01935 0.998712 -0.0468966 113 112 113
0 -0.981363 -0.56 0.0231331 0.999421 -0.0249507 113 115 114
-0.56 -0.996495 -0.64 -0.0142652 0.999819 -0.012617 115 115 115
-0.64 -0.996782 -0.64 -0.00359563 0.999993 0.000742818 115 115 115
-0.48 -0.995212 -0.64 -0.0243996 0.999211 -0.0313271 129 129 129
-0.4 -0.993349 -0.64 0.00208949 0.999998 -9.46862e-05 132 133 133
-0.32 -0.993625 -0.64 -0.052597 0.998331 -0.0238437 38 38 38
-0.24 -0.98681 -0.64 -0.0311206 0.999514 0.00185563 97 97 96
-0.16 -0.986616 -0.64 -0.0292419 0.99899 -0.0341026 105 104 104
-0.08 -0.984711 -0.64 -0.034024 0.997759 -0.0576116 115 115 115
0 -0.981553 -0.64 -0.0105237 0.999456 -0.0312608 111 111 111
1.02866 -0 0.56 -0.935544 0.258822 -0.240353 207 206 215
0.996122 -0.08 0.64 -0.969066 0.11206 -0.219896 207 206 215
0.996541 -0 0.64 -0.927975 0.00485774 -0.372611 207 206 215
1.0097 -0.08 0.56 -0.968891 0.214131 -0.124088 207 206 215
0.987166 -0.16 0.64 -0.487764 0.872073 -0.0396851 200 198 208
0.990798 -0.16 0.56 -0.621517 0.779958 -0.0733623 200 198 208
0.96 -0.174113 0.56 -0.396908 0.911804 -0.105249 134 105 84
0.88 -0.184519 0.64 -0.273814 0.949975 -0.150247 134 105 84
0.96 -0.166738 0.64 -0.251728 0.96705 -0.0380348 134 105 84
0.88 -0.202454 0.56 -0.244425 0.945047 -0.217124 134 105 84
0.72 -0.263983 0.64 -0.496463 0.776759 0.387518 117 118 111
0.72 -0.24 0.597676 -0.516676 0.744904 0.422094 117 118 111
0.691102 -0.24 0.56 -0.761464 0.648114 -0.0110045 117 118 111
0.64 -0.289651 0.56 -0.504151 0.818238 -0.276258 117 118 111
0.64 -0.28985 0.64 -0.30766 0.951493 0.00237415 117 118 111
0.757228 -0.24 0.64 -0.488929 0.758949 0.430052 110 110 103
1.04 -0.0253512 0.48 -0.913921 0.400377 -0.0666791 172 170 177
1.01908 -0.08 0.48 -0.960179 0.27633 -0.0412088 172 170 177
1.04 -0 0.522747 -0.889496 0.38441 -0.247032 172 170 177
1.05178 -0 0.48 -0.904158 0.420036 -0.0778979 164 162 166
1.00043 -0.16 0.48 -0.842543 0.502419 -0.194154 197 195 208
0.8 -0.207626 0.56 -0.16367 0.9044 -0.394047 57 52 49
0.8 -0.24 0.493676 -0.199592 0.602358 -0.77287 57 52 49
0.72 -0.222759 0.56 -0.0705051 0.941424 -0.329772 57 52 49
0.72 -0.24 0.490708 -0.460114 0.465847 -0.755832 57 52 49
0.835079 -0.24 0.48 -0.308861 0.671157 -0.673909 132 107 93
0.88 -0.221647 0.48 -0.240271 0.695496 -0.677168 132 107 93
0.96 -0.19074 0.48 -0.431758 0.632168 -0.643388 117 112 121
0.70526 -0.32 0.48 -0.201317 0.337707 -0.91947 108 104 94
0.64 -0.32 0.513226 -0.280759 0.785549 -0.55144 108 104 94
0.72 -0.277695 0.48 -0.463754 0.240582 -0.852674 108 104 94
0.8 -0.311854 0.48 -0.106868 0.153889 -0.982292 158 132 114
0.905555 -0.32 0.48 0.318739 0.459403 -0.829068 151 114 93
0.96 -0.285345 0.48 -0.0475568 -0.673401 -0.737747 151 114 93
0.96 -0.32 0.49699 0.11523 0.100266 -0.988266 151 114 93
1.04 -0.305825 0.48 -0.259499 -0.330977 -0.907257 164 130 104
1.04 -0.32 0.483903 -0.238148 0.248342 -0.938942 164 130 104
1.05437 -0.32 0.48 -0.319882 -0.177472 -0.930687 157 124 99
0.64 -0.344694 0.48 -0.252519 0.798708 -0.546169 121 91 63
0.96 -0.347214 0.48 0.10328 0.59308 -0.798492 70 57 44
1.04 -0.326684 0.48 -0.216566 0.504752 -0.835658 93 72 52
1.28 -0.574152 0.48 0.0288374 -0.617615 -0.785951 21 18 25
1.28 -0.64 0.529855 0.0104207 -0.603595 -0.797223 21 18 25
1.2 -0.64 0.52881 0.0289539 -0.617703 -0.785878 21 18 25
1.2 -0.580156 0.48 0.0312189 -0.415973 -0.908841 21 18 25
1.04 -0 0.416328 -0.930212 0.340989 0.135765 165 160 164
1.03778 -0 0.4 -0.942596 0.314755 0.111544 165 160 164
1.01561 -0.08 0.4 -0.903 0.291286 -0.315822 165 160 164
0.986119 -0.16 0.4 -0.919612 -0.0227809 -0.392168 196 195 204
0.88 -0.24 0.461696 -0.239734 0.563015 -0.790912 189 187 196
0.96 -0.24 0.446268 -0.397091 0.0683513 -0.915231 196 195 207
1.01692 -0.24 0.4 -0.449982 -0.264676 -0.852914 208 208 220
1.1404 -0.24 0.4 0.482396 -0.390338 -0.784175 163 140 119
1.2 -0.192917 0.4 0.236862 -0.683832 -0.690123 163 140 119
1.2 -0.24 0.435983 0.219549 -0.501248 -0.836988 163 140 119
1.28 -0.19084 0.4 0.0173048 -0.732418 -0.680635 150 126 102
1.28 -0.24 0.440812 0.0533835 -0.463718 -0.884373 150 126 102
0.72 -0.32 0.472206 -0.346834 0.343777 -0.872653 94 57 40
0.8 -0.32 0.478731 -0.0846898 0.197013 -0.976736 151 115 94
0.88 -0.32 0.469239 0.144282 0.182236 -0.972611 165 130 104
1.04 -0.274438 0.4 -0.261199 -0.432232 -0.863105 148 115 90
1.12 -0.276327 0.4 0.357807 -0.455378 -0.815233 121 92 72
1.12 -0.32 0.449384 0.0638086 -0.19807 -0.978109 121 92 72
1.2 -0.32 0.459292 0.0440107 -0.0776254 -0.996011 93 67 52
1.28 -0.32 0.45809 0.00313082 -0.0341075 -0.999413 83 67 62
0.72 -0.374874 0.4 0.125952 0.710117 -0.692727 128 96 64
0.64 -0.373973 0.4 0.0466047 0.825314 -0.562747 128 96 64
0.8 -0.4 0.406393 0.315195 0.414078 -0.853927 117 93 65
0.783182 -0.4 0.4 0.31481 0.431758 -0.845269 117 93 65
0.88 -0.4 0.414975 0.0546797 0.361788 -0.930655 37 29 27
0.96 -0.4 0.418758 -0.0225025 0.470865 -0.881918 60 48 41
1.04 -0.4 0.407671 0.0132329 0.389036 -0.921128 59 46 41
1.12 -0.4 0.427937 0.278849 0.229648 -0.932472 36 24 21
1.2 -0.4 0.451073 0.0614904 0.11421 -0.991552 32 20 20
1.28 -0.4 0.443674 -0.0724321 0.145906 -0.986643 22 12 13
0.8 -0.414421 0.4 0.326785 0.376484 -0.866874 23 21 26
0.88 -0.48 0.40308 0.207413 0.0666732 -0.975979 22 20 26
0.868595 -0.48 0.4 0.266815 0.0887835 -0.95965 22 20 26
0.96 -0.469799 0.4 -0.0792404 0.175603 -0.981267 20 17 23
0.938362 -0.48 0.4 -0.0861105 0.201052 -0.975788 20 17 23
1.04 -0.422659 0.4 0.0385737 0.258234 -0.965312 20 17 24
1.12 -0.48 0.405579 0.260916 0.143177 -0.954685 18 14 22
1.09437 -0.48 0.4 0.179729 0.170411 -0.968843 18 14 22
1.2 -0.48 0.44592 0.103609 0.134212 -0.985521 16 13 21
1.28 -0.48 0.431298 -0.156259 0.146645 -0.976769 21 16 23
0.88 -0.56 0.406712 0.286935 -0.0322746 -0.957406 21 19 24
0.862168 -0.56 0.4 0.352117 -0.0282884 -0.935528 21 19 24
0.96 -0.490635 0.4 -0.0524462 -0.106999 -0.992875 55 47 50
0.96 -0.56 0.407502 -0.0234735 -0.0785621 -0.996633 55 47 50
1.2 -0.56 0.433499 -0.00480703 -0.562883 -0.826522 17 14 22
1.12 -0.56 0.450348 -0.180761 -0.480307 -0.858272 17 14 22
1.28 -0.56 0.416025 -0.153515 -0.642286 -0.750934 17 15 23
1.04 -0.08 0.372815 -0.596859 0.208292 -0.774838 212 211 219
1.04 -0 0.396295 -0.816617 0.234938 -0.527201 212 211 219
1.12 -0.08 0.344585 -0.0767519 0.147562 -0.98607 198 199 209
1.12 -0 0.370628 -0.133446 0.244383 -0.960453 198 199 209
1.2 -0.08 0.356934 0.0665077 0.0726346 -0.995139 202 204 213
1.2 -0 0.362537 -0.00601039 0.0828741 -0.996542 202 204 213
1.28 -0.08 0.361921 0.0749318 0.0815428 -0.993849 164 169 177
1.28 -0 0.371728 0.113295 0.120891 -0.986179 164 169 177
1.04 -0.16 0.358275 -0.398522 -0.0929204 -0.91244 165 164 174
1.12 -0.16 0.34416 -0.0273427 -0.212926 -0.976686 197 196 206
1.2 -0.16 0.357307 0.143768 -0.46617 -0.872936 185 188 196
1.28 -0.16 0.356486 0.00767619 -0.538607 -0.842522 145 151 160
1.04 -0.24 0.391267 -0.266658 -0.276912 -0.923154 162 142 122
1.12 -0.24 0.38885 0.334904 -0.340793 -0.878464 147 122 100
1.28 -0.316096 0.32 -0.60163 0.529257 0.598271 93 102 82
1.27657 -0.32 0.32 -0.601025 0.508657 0.616471 93 102 82
1.28 -0.32 0.322761 -0.552802 0.470732 0.687621 93 102 82
0.72 -0.4 0.377616 0.163345 0.566718 -0.807557 20 16 17
0.64 -0.4 0.368219 0.132524 0.655158 -0.743778 20 16 17
1.28 -0.4 0.349931 -0.65427 0.0901409 0.75087 53 53 49
1.24569 -0.4 0.32 -0.992196 0.0676179 0.104757 53 53 49
0.72 -0.48 0.357633 0.267498 0.176399 -0.947274 22 20 25
0.64 -0.48 0.320785 0.339497 0.173552 -0.924457 22 20 25
0.8 -0.48 0.373977 0.271406 0.243665 -0.93111 22 19 26
0.96 -0.48 0.398284 -0.0738785 0.165383 -0.983458 17 14 22
1.04 -0.48 0.393502 0.0404819 0.114432 -0.992606 19 16 23
1.28 -0.48 0.343818 -0.64358 0.0786728 0.761324 75 75 72
1.25172 -0.48 0.32 -0.985916 -0.0199805 -0.166043 75 75 72
0.72 -0.56 0.353923 0.250179 -0.027013 -0.967823 21 19 24
0.64 -0.56 0.341704 0.146187 -0.250255 -0.95708 21 19 24
0.8 -0.56 0.370811 0.203111 0.0419707 -0.978256 31 23 25
1.28 -0.56 0.366568 -0.821447 -0.0430975 0.568654 55 55 53
1.24997 -0.56 0.32 -0.780851 -0.087317 -0.618585 55 55 53
1.28 -0.64 0.34528 -0.760589 -0.0819454 0.644042 94 87 86
1.25699 -0.64 0.32 -0.965839 0.0101848 -0.258941 94 87 86
1.28 -0.228321 0.24 -0.391121 0.866178 -0.311062 47 48 48
1.25414 -0.24 0.24 -0.70425 0.68209 -0.196938 47 48 48
1.28 -0.24 0.257559 -0.454271 0.588159 0.669109 47 48 48
1.2 -0.307513 0.24 -0.434027 0.873095 -0.222094 90 94 86
1.18528 -0.32 0.24 -0.966063 -0.141262 -0.21626 90 94 86
1.2 -0.32 0.246953 -0.297257 -0.132688 0.945533 90 94 86
1.28 -0.305277 0.24 -0.928598 -0.367927 -0.0483249 75 73 69
1.28 -0.32 0.284224 -0.897987 0.397477 -0.188762 75 73 69
1.25055 -0.32 0.24 0.995534 -0.0620621 -0.0711441 75 73 69
1.2 -0.329194 0.24 -0.354853 -0.892581 -0.278168 99 97 90
1.28 -0.4 0.285221 -0.695299 -0.0429687 -0.717435 80 24 30
1.28 -0.48 0.302483 -0.508618 -0.092728 -0.855984 64 53 52
1.28 -0.56 0.31105 -0.304168 -0.0567933 -0.950924 72 72 70
1.28 -0.64 0.303685 -0.576774 0.0748885 -0.813464 40 33 33
1.28 -0.24 0.231321 -0.281505 0.465854 -0.838889 39 39 39
1.2 -0.32 0.236692 -0.154519 -0.0852642 -0.984304 82 31 37
0.4 -0.66801 0.56 -0.852007 0.512768 -0.105605 29 28 33
0.4 -0.64 0.581216 -0.774414 0.382008 -0.504333 29 28 33
0.413817 -0.64 0.56 -0.861148 0.424793 -0.279239 29 28 33
0.32 -0.710178 0.56 0.13251 0.858369 -0.495624 19 18 23
0.32 -0.72 0.543602 0.0542443 0.704827 -0.707303 19 18 23
0.243407 -0.64 0.56 0.36092 0.506112 -0.783318 19 18 23
0.24 -0.64 0.558443 0.351209 0.498271 -0.792703 19 18 23
0.24 -0.72 0.532057 0.103193 0.243671 -0.964352 19 18 23
0.391603 -0.64 0.48 -0.911271 -0.0604961 -0.407339 33 32 36
0.396914 -0.72 0.48 -0.713441 -0.172625 -0.679119 33 32 36
0.4 -0.64 0.50882 -0.947023 0.250422 0.201089 33 32 36
0.32 -0.8 0.523284 -0.168623 0.128064 -0.977326 19 18 23
0.24 -0.8 0.523057 -0.00250877 0.0713211 -0.99745 19 18 23
0.4 -0.731406 0.48 -0.701938 -0.183165 -0.688283 29 29 32
0.4 -0.8 0.490237 -0.603935 -0.014599 -0.7969 29 29 32
0.412744 -0.8 0.48 -0.652436 -0.0144522 -0.757706 27 25 28
0.32 -0.88 0.519953 -0.208241 0.0741631 -0.975262 18 17 22
0.24 -0.88 0.52143 0.0990692 0.182531 -0.978196 18 17 22
0.4 -0.88 0.483516 -0.740082 0.33852 -0.581105 15 14 19
0.402732 -0.88 0.48 -0.798417 0.15084 -0.582905 17 15 20
0.32 -0.96 0.510612 -0.0745679 0.860637 -0.50373 18 17 22
0.272495 -0.96 0.48 0.356353 0.881792 -0.30896 18 17 22
0.24 -0.944063 0.48 0.362391 0.849505 -0.383425 18 17 22
0.4 -0.885544 0.48 -0.733023 0.364638 -0.574209 15 14 19
0.35854 -0.96 0.48 -0.524229 0.695054 -0.49202 15 14 19
0.32 -0.96963 0.48 -0.0228509 0.995898 -0.0875509 43 42 47
0.4 -0.72 0.476741 -0.715481 -0.173679 -0.6767 25 25 29
0.4 -0.64 0.470109 -0.720383 -0.0546701 -0.691419 25 25 29
0.48 -0.64 0.43714 -0.648516 0.310808 -0.694856 29 29 32
0.48 -0.705395 0.4 -0.419258 0.360616 -0.833174 29 29 32
0.465664 -0.72 0.4 -0.466417 -0.0203544 -0.884331 29 29 32
0.513412 -0.64 0.4 -0.780213 0.183049 -0.598131 25 27 25
0.48 -0.761158 0.4 -0.398548 -0.201791 -0.894673 26 24 27
0.48 -0.8 0.410609 -0.366827 0.21236 -0.905727 26 24 27
0.528374 -0.8 0.4 -0.131848 0.0244828 -0.990968 25 25 27
0.48 -0.819618 0.4 -0.326154 0.440313 -0.83651 16 15 19
0.439864 -0.88 0.4 -0.685862 0.285998 -0.669177 16 15 19
0.15617 -0.96 0.4 0.0242005 0.990061 -0.138538 14 13 18
0.08 -0.958115 0.4 -0.0494758 0.981757 -0.183591 14 13 18
0.16 -0.96 0.400686 0.0231349 0.990523 -0.135383 14 13 18
0.16 -0.937876 0.48 0.0323464 0.967409 -0.251143 14 13 18
0.08 -0.935792 0.48 0.0250895 0.962899 -0.268694 14 13 18
0.24 -0.96 0.401507 0.0734983 0.990819 -0.113474 19 18 23
0.4 -0.96 0.423026 -0.402312 0.869787 -0.285685 15 15 19
0.416178 -0.96 0.4 -0.329309 0.909572 -0.253446 17 15 21
0.16 -0.960094 0.4 0.0231451 0.99053 -0.135329 101 100 100
0.24 -0.960169 0.4 0.0694785 0.992871 -0.096845 89 88 90
0.32 -0.969268 0.4 0.0509371 0.998499 -0.0201196 85 85 86
0.4 -0.9642 0.4 -0.233974 0.955961 -0.177185 64 63 65
0.48 -0.72 0.394067 -0.382035 0.207029 -0.90066 24 24 24
0.511402 -0.64 0.32 -0.385965 -0.891681 -0.236508 25 25 24
0.56 -0.661036 0.32 -0.278806 -0.814197 -0.509264 25 25 24
0.56 -0.72 0.383041 -0.0728411 -0.445034 -0.892546 25 25 24
0.618177 -0.64 0.32 0.236467 -0.701632 -0.672157 24 24 26
0.64 -0.64 0.32747 0.174229 -0.673337 -0.718513 24 24 26
0.64 -0.72 0.369131 -0.157071 -0.399154 -0.90333 24 24 26
0.56 -0.8 0.397544 -0.0513121 0.106302 -0.993009 25 25 26
0.64 -0.8 0.398831 -0.02952 0.0472443 -0.998447 23 22 24
0.48 -0.88 0.368973 -0.491408 0.377816 -0.784712 14 14 16
0.56 -0.88 0.335832 -0.0251509 0.582635 -0.812344 14 13 17
0.64 -0.88 0.36821 0.214969 0.585897 -0.781353 15 15 17
0.08 -0.96 0.38978 -0.0478332 0.982631 -0.179299 86 85 86
0.0556608 -0.96 0.4 -0.0750062 0.981055 -0.178621 86 85 86
0.24 -0.958218 0.32 0.0666512 0.912749 -0.403046 12 11 16
0.220303 -0.96 0.32 -0.0857857 0.984738 -0.15143 12 11 16
0.24 -0.96 0.392099 0.0586242 0.99805 0.0214308 12 11 16
0.250827 -0.96 0.32 0.133158 0.923254 -0.360377 18 17 21
0.48 -0.96 0.330321 -0.209908 0.929341 -0.303752 15 14 19
0.56 -0.901675 0.32 -0.133651 0.701987 -0.699537 14 13 18
0.496327 -0.96 0.32 -0.236043 0.918838 -0.316261 14 13 18
0.64 -0.92821 0.32 0.300346 0.905482 -0.299824 14 14 18
0 -0.964131 0.4 -0.0309947 0.992249 -0.12034 116 115 115
0.08 -0.97114 0.32 -0.021587 0.998085 -0.0579645 116 115 115
0 -0.96959 0.32 0.0150887 0.999487 -0.0282552 116 115 115
0.16 -0.964097 0.32 -0.0440112 0.996431 -0.0720249 110 109 110
0.32 -0.968701 0.32 0.0792777 0.996848 -0.00292283 83 83 83
0.4 -0.980293 0.32 -0.0282683 0.99944 -0.0178973 71 70 72
0.48 -0.962651 0.32 -0.166588 0.958762 -0.230269 75 74 75
0.56 -0.64 0.286232 -0.344857 -0.796709 -0.496315 22 22 24
0.24 -0.96 0.31622 0.0626494 0.905633 -0.419408 63 62 64
0.56 -0.95407 0.24 -0.351821 0.908135 -0.226964 16 14 18
0.545034 -0.96 0.24 -0.311375 0.944936 -0.10071 16 14 18
0.64 -0.907256 0.24 -0.252351 0.919043 -0.302786 19 18 21
0.08 -0.969536 0.24 0.00284063 0.999683 0.0250169 105 105 105
0 -0.969354 0.24 -0.0096408 0.999911 0.0091884 105 105 105
0.16 -0.969068 0.24 0.0458307 0.998949 -4.56077e-05 89 88 89
0.24 -0.980391 0.24 0.00412457 0.999562 -0.0293083 88 88 88
0.32 -0.966009 0.24 -0.0866441 0.995784 0.0301145 86 86 87
0.4 -0.966237 0.24 0.0183344 0.991637 0.127746 94 94 93
0.48 -0.969834 0.24 -0.162484 0.830369 0.532997 40 39 41
0.48 -0.871849 0.16 0.070135 0.98302 -0.169569 18 17 20
0.466321 -0.88 0.16 -0.537487 0.835823 -0.111839 18 17 20
0.48 -0.88 0.177426 0.0324609 0.887414 0.45983 18 17 20
0.491697 -0.88 0.16 0.587586 0.800822 -0.115873 22 14 15
0.4 -0.954507 0.16 -0.274347 0.955669 0.106915 26 25 30
0.354774 -0.96 0.16 -0.111639 0.96781 0.225569 26 25 30
0.4 -0.96 0.195501 -0.240961 0.948818 0.204161 26 25 30
0.48 -0.96 0.228494 -0.183896 0.720913 0.668182 20 17 21
0.56 -0.94802 0.16 0.260477 0.964951 -0.0319602 56 55 56
0.64 -0.956609 0.16 -0.0283774 0.993503 -0.110213 85 81 83
0.08 -0.966394 0.16 -0.00970349 0.999953 -0.000824371 100 100 100
0 -0.970026 0.16 -0.0383032 0.999198 -0.0116665 100 100 100
0.16 -0.967522 0.16 0.0317776 0.999492 -0.0026103 94 93 94
0.24 -0.971827 0.16 -0.0115203 0.999587 0.0263137 87 87 88
0.32 -0.963863 0.16 -0.154205 0.947913 0.278715 13 12 17
0.48 -0.88 0.148296 0.0454058 0.801913 -0.595712 27 20 23
0.32 -0.919492 0.08 -0.304152 0.946712 -0.105964 51 50 51
0.273054 -0.96 0.08 -0.498625 0.866225 -0.0320592 51 50 51
0.32 -0.96 0.148461 -0.188948 0.925647 0.327835 51 50 51
0.4 -0.956443 0.08 0.191134 0.971248 -0.141936 85 84 85
0.48 -0.954191 0.08 -0.0213007 0.977796 -0.208475 75 73 74
0.56 -0.955609 0.08 0.0148298 0.997854 -0.0637832 68 67 68
0.64 -0.958118 0.08 0.0502326 0.998611 -0.0159161 99 98 98
0.08 -0.96872 0.08 -0.00518742 0.999749 -0.0218154 97 97 97
0 -0.970095 0.08 -0.0214062 0.999651 -0.0154629 97 97 97
0.16 -0.969829 0.08 0.0268268 0.999121 0.0322128 89 89 89
0.24 -0.974372 0.08 -0.166999 0.98593 -0.00732366 99 99 102
0.16 -0.956063 -0 0.0380081 0.968103 0.247652 35 33 36
0.144746 -0.96 -0 -0.225853 0.948199 0.223403 35 33 36
0.16 -0.96 0.0153914 0.0183656 0.973654 0.227291 35 33 36
0.173106 -0.96 -0 0.2609 0.939457 0.222154 100 99 99
0.32 -0.96 0.0199331 -0.116853 0.90734 -0.403831 104 104 104
0.4 -0.96 0.060749 0.138353 0.969681 -0.20144 73 72 73
0.48 -0.96 0.0284281 -0.0545897 0.991659 -0.116757 102 102 102
0.555765 -0.96 -0 -0.0440305 0.99253 -0.113778 104 104 104
0.56 -0.959812 -0 -0.041513 0.993548 -0.105545 104 104 104
0.64 -0.956143 -0 -0.00721715 0.999877 -0.0138883 106 106 106
0.08 -0.97045 -0 -0.055051 0.998182 0.0245313 91 90 90
0 -0.973179 -0 -0.0340703 0.998677 -0.0385028 91 90 90
0.24 -0.971262 -0 0.0406165 0.996724 0.0699339 101 100 101
0.32 -0.967746 -0 -0.0757117 0.948754 -0.306812 92 91 92
0.4 -0.969935 -0 -0.0236902 0.9875 -0.155831 68 67 67
0.48 -0.963215 -0 -0.0620838 0.991748 -0.112166 114 114 114
1.92057 -0.08 0.32 -0.412604 -0.907085 0.0833946 82 102 136
1.92 -0.08 0.321459 -0.430374 -0.886717 -0.168854 82 102 136
1.92 -0.0797436 0.32 -0.407183 -0.908042 0.0982906 82 102 136
1.94574 -0.16 0.32 -0.850142 -0.0388922 -0.525116 17 18 23
1.92 -0.16 0.330558 -0.379508 -0.0100142 -0.925134 17 18 23
1.92823 -0.24 0.32 -0.488142 0.123028 -0.864049 24 24 24
1.92 -0.24 0.323418 -0.383421 0.0576155 -0.921775 24 24 24
1.9213 -0.32 0.32 -0.979551 0.158502 -0.12392 35 35 35
1.92 -0.32 0.321551 -0.761534 0.118366 -0.637225 35 35 35
1.92 -0.327677 0.32 -0.985997 0.166631 -0.00661317 37 37 37
1.92 -0.08 0.319114 -0.40482 -0.876261 0.261318 98 120 156
1.92 -0.16 0.284108 -0.811724 -0.048408 0.582032 5 6 11
1.92 -0.24 0.302525 -0.891844 0.13625 0.431335 4 4 6
1.92 -0.32 0.31813 -0.814565 0.131496 0.564971 7 7 8
1.6 0.580895 -0.08 -0.960192 0.103465 0.259474 103 113 125
1.59765 0.56 -0.08 -0.981694 -0.0585522 0.181241 103 113 125
1.6 0.56 -0.0656749 -0.986507 -0.0374651 0.159373 103 113 125
1.60564 0.64 -0.08 -0.867169 0.0892381 0.489954 49 52 68
1.61 0.56 -0 -0.985208 0.0130487 0.170865 49 52 68
1.62987 0.64 -0 -0.931138 0.231265 0.281953 49 52 68
1.6 0.546429 -0.08 -0.968218 -0.165324 0.187676 114 126 137
1.61043 0.48 -0.08 -0.95414 -0.0902867 0.285422 40 44 52
1.61857 0.48 -0 -0.993767 -0.0471207 0.101029 40 44 52
1.61764 0.4 -0 -0.989295 -0.0909185 0.114146 54 59 74
1.60803 0.4 -0.08 -0.983681 -0.0541535 0.171578 54 59 74
1.63443 0.32 -0 -0.976775 -0.114276 0.18125 47 45 83
1.6179 0.32 -0.08 -0.977636 -0.00712163 0.210186 47 45 83
1.64001 0.24 -0 -0.935131 0.00136703 0.3543 54 43 107
1.60435 0.24 -0.08 -0.98258 0.0814827 0.167026 54 43 107
1.6 0.201036 -0.08 -0.992647 0.115214 0.037114 120 125 150
1.59542 0.16 -0.08 -0.890944 0.171401 0.420525 120 125 150
1.6 0.16 -0.0729754 -0.828209 0.160645 0.536902 120 125 150
1.64309 0.16 -0 -0.866699 0.17007 0.468945 64 46 112
1.6 0.08 -0.0229752 -0.866502 0.0136818 0.498986 118 123 148
1.55639 0.08 -0.08 -0.956513 -0.0198843 0.29101 118 123 148
1.61184 0.08 -0 -0.892529 0.0411793 0.449107 65 43 102
1.6 0.0100661 -0.08 -0.782931 -0.555399 0.28027 103 109 125
1.6073 -0 -0.08 -0.782356 -0.559303 0.274041 97 53 63
1.63778 -0 -0 -0.894304 -0.289987 0.340775 97 53 63
1.6 0.64 -0.0892492 -0.850929 0.0812118 0.518965 46 44 77
1.55699 0.64 -0.16 -0.928754 -0.294466 0.225178 46 44 77
1.59352 0.56 -0.16 -0.984104 -0.106739 0.141935 46 44 77
1.6 0.48 -0.107376 -0.931607 -0.10137 0.349046 40 40 50
1.58103 0.48 -0.16 -0.969317 -0.0160272 0.24529 40 40 50
1.6 0.4 -0.120307 -0.971526 -0.110079 0.209811 60 63 84
1.59209 0.4 -0.16 -0.945432 -0.117093 0.304053 60 63 84
1.6 0.353618 -0.16 -0.942064 -0.145902 0.30204 46 45 82
1.60474 0.32 -0.16 -0.917455 -0.143538 0.371044 45 39 85
1.60942 0.24 -0.16 -0.995516 -0.0943041 -0.00740403 52 39 105
1.6 0.16 -0.112484 -0.957449 0.243422 -0.155041 61 39 116
1.60921 0.16 -0.16 -0.896497 0.335874 -0.288931 55 39 100
1.6 0.141326 -0.16 -0.853331 0.405082 -0.328231 67 39 123
1.57397 0.08 -0.16 -0.870789 0.280028 -0.404118 67 39 123
1.6 -0 -0.106853 -0.811111 -0.547615 0.205469 117 49 71
1.5875 -0 -0.16 -0.947582 -0.299636 0.110934 117 49 71
1.54505 0.64 -0.24 -0.938828 -0.343417 -0.0258301 39 38 61
1.57187 0.56 -0.24 -0.975506 -0.0163173 0.219366 39 38 61
1.56075 0.48 -0.24 -0.935572 0.109601 0.335696 48 51 66
1.54933 0.4 -0.24 -0.913615 -0.0431698 0.404281 67 75 100
1.6 0.32 -0.170544 -0.898795 -0.162032 0.407324 47 40 89
1.5673 0.32 -0.24 -0.904149 -0.255747 0.34221 47 40 89
1.6 0.24 -0.221541 -0.904133 -0.39466 0.16367 48 38 91
1.59686 0.24 -0.24 -0.87577 -0.461442 0.141769 48 38 91
1.6 0.234171 -0.24 -0.872326 -0.46881 0.138795 48 38 79
1.64007 0.16 -0.24 -0.971166 -0.207165 -0.117982 45 36 80
1.6 0.08 -0.192101 -0.700536 0.433934 -0.566525 62 36 114
1.63926 0.08 -0.24 -0.848102 0.444665 -0.28809 67 35 117
1.6 0.0361291 -0.24 -0.738489 0.637264 -0.220292 114 47 78
1.57182 -0 -0.24 -0.85829 0.512603 -0.0240158 114 47 78
1.56485 0.64 -0.32 -0.985217 0.0910711 0.145096 71 85 125
1.54561 0.56 -0.32 -0.917706 0.216048 0.333376 71 85 125
1.52707 0.48 -0.32 -0.950634 0.142705 0.275554 69 81 108
1.52192 0.4 -0.32 -0.961185 -0.0680189 0.267388 70 83 113
1.54581 0.32 -0.32 -0.913541 -0.337908 0.22641 46 37 86
1.58432 0.24 -0.32 -0.839936 -0.505683 0.196959 42 33 76
1.6 0.216616 -0.32 -0.810304 -0.548005 0.207598 44 35 79
1.64326 0.16 -0.32 -0.93272 -0.299205 0.201271 47 34 89
1.63514 0.08 -0.32 -0.884289 0.464294 0.0496432 71 28 121
1.6 0.0458535 -0.32 -0.670713 0.739612 0.0558467 113 50 84
1.55041 -0 -0.32 -0.690207 0.710544 0.136899 113 50 84
1.52 0.578148 -0.4 -0.865967 0.354254 0.352995 83 104 154
1.51251 0.56 -0.4 -0.885552 0.312069 0.344107 83 104 154
1.52 0.56 -0.379842 -0.893385 0.297048 0.337084 83 104 154
1.54402 0.64 -0.4 -0.877894 0.318506 0.35757 82 102 144
1.52 0.48 -0.347723 -0.957793 0.119483 0.261451 69 85 119
1.50597 0.48 -0.4 -0.938182 0.0826169 0.336139 69 85 119
1.52 0.4 -0.327017 -0.962695 -0.0669723 0.262171 77 91 123
1.50141 0.4 -0.4 -0.951055 -0.138717 0.276138 77 91 123
1.52 0.337221 -0.4 -0.882898 -0.287347 0.37138 59 37 103
1.52575 0.32 -0.4 -0.864676 -0.320433 0.386857 56 35 116
1.56645 0.24 -0.4 -0.88343 -0.403857 0.237594 56 33 107
1.6 0.164871 -0.4 -0.843521 -0.369279 0.390006 56 30 104
1.60212 0.16 -0.4 -0.841561 -0.377307 0.386543 61 27 108
1.64356 0.08 -0.4 -0.894458 0.444995 0.0438703 83 20 121
1.6 0.0512774 -0.4 -0.573436 0.817299 0.0565211 121 61 78
1.53293 -0 -0.4 -0.62146 0.779022 0.0831415 121 61 78
1.52 0.64 -0.452117 -0.782871 0.400911 0.475798 93 118 161
1.50035 0.64 -0.48 -0.838755 0.319878 0.440646 93 118 161
1.48181 0.56 -0.48 -0.928464 0.187425 0.320666 93 118 161
1.46046 0.48 -0.48 -0.978581 -0.0357194 0.202738 79 98 132
1.48856 0.4 -0.48 -0.981657 -0.162714 0.0993652 81 97 129
1.52 0.32 -0.412154 -0.856098 -0.328264 0.399174 80 36 133
1.4909 0.32 -0.48 -0.893602 -0.3016 0.332434 80 36 133
1.52 0.273701 -0.48 -0.752328 -0.508811 0.418467 75 33 127
1.54409 0.24 -0.48 -0.792762 -0.408456 0.452428 80 34 129
1.6 0.16 -0.404638 -0.838916 -0.385502 0.384198 71 28 119
1.56998 0.16 -0.48 -0.745932 -0.463586 0.478198 71 28 119
1.6 0.123148 -0.48 -0.677742 -0.509244 0.530411 93 23 128
1.63297 0.08 -0.48 -0.745336 0.250633 0.617784 102 27 120
1.6 0.0544474 -0.48 -0.53315 0.705653 0.466695 132 80 79
1.52364 -0 -0.48 -0.652378 0.7212 0.23297 132 80 79
1.46781 0.64 -0.56 -0.87557 0.049076 0.480592 103 128 169
1.46453 0.56 -0.56 -0.911244 0.0451746 0.409383 103 128 169
1.46477 0.48 -0.56 -0.925757 -0.118764 0.358983 88 107 140
1.48282 0.4 -0.56 -0.95188 -0.0563544 0.301245 85 101 133
1.45762 0.32 -0.56 -0.96387 -0.0618928 0.259083 103 50 123
1.52 0.24 -0.516731 -0.810202 -0.329402 0.484836 94 35 127
1.49706 0.24 -0.56 -0.865207 -0.198998 0.460236 94 35 127
1.52 0.16 -0.532028 -0.724775 -0.295654 0.622326 92 33 125
1.49602 0.16 -0.56 -0.745001 -0.242826 0.621296 92 33 125
1.52 0.12136 -0.56 -0.659252 -0.391114 0.642197 111 36 127
1.5409 0.08 -0.56 -0.752453 0.0196278 0.658354 117 41 124
1.6 0.08 -0.504139 -0.599814 0.203402 0.773854 117 41 124
1.52 0.0375563 -0.56 -0.750145 0.428385 0.503755 138 84 88
1.49598 -0 -0.56 -0.773492 0.429378 0.466203 138 84 88
1.52 -0 -0.489845 -0.684298 0.678672 0.26672 138 84 88
1.44 0.64 -0.597759 -0.715343 -0.00421908 0.698761 114 136 183
1.37269 0.64 -0.64 -0.643845 -0.150084 0.750292 114 136 183
1.44 0.56 -0.598243 -0.825686 -0.0445719 0.562366 114 136 183
1.41473 0.56 -0.64 -0.840911 -0.188677 0.507218 114 136 183
1.44 0.48 -0.596254 -0.838895 -0.0966616 0.535642 103 127 166
1.41408 0.48 -0.64 -0.855228 -0.0962337 0.509239 103 127 166
1.44 0.4 -0.628194 -0.826673 -0.163151 0.538511 86 105 135
1.43225 0.4 -0.64 -0.824858 -0.162363 0.541524 86 105 135
1.44 0.357162 -0.64 -0.835063 -0.145625 0.530531 116 69 130
1.44636 0.32 -0.64 -0.911901 -0.0949919 0.399266 119 71 133
1.44777 0.24 -0.64 -0.862845 -0.0289316 0.50464 110 50 130
1.45537 0.16 -0.64 -0.891543 0.000580469 0.452935 111 53 133
1.52 0.08 -0.583054 -0.71441 -0.00308466 0.69972 130 64 134
1.44767 0.08 -0.64 -0.781797 0.0193053 0.623234 130 64 134
1.44978 -0 -0.64 -0.86577 -0.0229108 0.499918 142 109 105
-0.64 -0.992796 -0.24 -0.0591739 0.997805 -0.0297349 123 122 124
-0.72 -0.996357 -0.16 -0.0420229 0.999114 0.00244369 123 122 124
-0.64 -0.99576 -0.16 -0.00745122 0.999287 0.0370231 123 122 124
-0.72 -0.998932 -0.24 -0.0525741 0.998348 -0.0231824 123 122 124
-0.64 -0.997778 -0.32 -0.00520431 0.996424 0.0843327 54 53 58
-0.72 -0.996253 -0.32 -0.0361367 0.997873 0.0542627 54 53 58
-0.64 -0.98283 -0.4 -0.1462 0.987595 0.0572934 132 132 133
-0.72 -0.999121 -0.4 -0.177424 0.983822 0.024812 132 132 133
-0.64 -0.979603 -0.48 -0.132907 0.989176 -0.0621875 119 119 120
-0.72 -0.988465 -0.48 -0.0475332 0.99583 0.0778608 119 119 120
-0.64 -0.996842 -0.56 0.075215 0.997125 -0.00920035 128 129 130
-0.72 -0.990807 -0.56 0.0435929 0.997991 -0.0459782 128 129 130
-0.64 -0.996782 -0.64 0.0114337 0.997942 -0.0631024 120 120 120
-0.72 -1.001 -0.64 -0.0522013 0.990632 -0.126191 120 120 120
0.64 -0.289651 0.56 -0.251371 0.811947 -0.526835 114 115 109
0.64 -0.32 0.513226 -0.125462 0.838877 -0.529665 114 115 109
0.56 -0.314418 0.56 -0.130049 0.933612 -0.333851 114 115 109
0.56 -0.32 0.54257 -0.288557 0.888054 -0.357903 114 115 109
0.48 -0.366709 0.56 -0.332996 0.935718 -0.116382 124 97 68
0.546366 -0.32 0.56 -0.524819 0.745672 -0.410533 124 97 68
0.56 -0.347128 0.48 -0.160257 0.919141 -0.359857 124 97 68
0.48 -0.353189 0.48 -0.232131 0.941407 -0.244679 124 97 68
0.64 -0.344694 0.48 -0.0260037 0.854751 -0.518386 119 90 64
0.4 -0.4 0.497681 -0.828187 0.0787638 -0.55489 23 21 30
0.412347 -0.4 0.48 -0.8104 0.1956 -0.552261 23 21 30
0.404238 -0.48 0.48 -0.944667 -0.180052 -0.274199 23 21 30
0.4 -0.48 0.496613 -0.926674 -0.260481 -0.27097 23 21 30
0.32 -0.494416 0.56 -0.103858 -0.454979 -0.884425 31 30 36
0.32 -0.48 0.552584 -0.12907 -0.50911 -0.850969 31 30 36
0.4 -0.512677 0.56 -0.661711 -0.648046 -0.377061 31 30 36
0.424676 -0.56 0.56 -0.913055 -0.241767 -0.328451 26 26 34
0.457382 -0.56 0.48 -0.854759 -0.0526811 -0.516345 26 26 34
0.4 -0.623443 0.48 -0.842004 0.471813 -0.261574 29 28 32
0.391603 -0.64 0.48 -0.828462 0.420133 -0.370323 29 28 32
0.4 -0.64 0.50882 -0.809916 0.520504 0.270391 29 28 32
0.413817 -0.64 0.56 -0.879444 0.475992 -0.00292213 27 26 31
0.48 -0.4 0.400622 -0.406159 0.4624 -0.788176 99 79 57
0.481217 -0.4 0.4 -0.476005 0.551018 -0.685418 117 94 69
0.56 -0.386007 0.4 -0.0841731 0.916913 -0.39011 117 94 69
0.64 -0.373973 0.4 -0.115592 0.768489 -0.629335 125 95 67
0.48 -0.401077 0.4 -0.572357 0.460351 -0.67859 16 13 30
0.433 -0.48 0.4 -0.679578 0.404696 -0.611878 16 13 30
0.48 -0.56 0.454809 -0.711211 -0.265664 -0.650846 22 20 40
0.48 -0.521677 0.4 -0.600303 -0.638895 -0.481092 22 20 40
0.518346 -0.56 0.4 -0.922803 -0.275558 -0.269261 87 86 97
0.4 -0.64 0.470109 -0.693586 0.365015 -0.621049 28 28 32
0.48 -0.64 0.43714 -0.616133 0.169868 -0.769107 43 43 48
0.513412 -0.64 0.4 -0.900469 0.125192 -0.416514 27 26 35
0.56 -0.4 0.364027 -0.0572085 0.863514 -0.50107 95 74 52
0.64 -0.4 0.368219 -0.0508571 0.733774 -0.677487 117 90 62
0.48 -0.48 0.347749 -0.737567 0.0986786 -0.668025 70 69 76
0.505324 -0.48 0.32 -0.33649 0.0550338 -0.940078 38 36 41
0.56 -0.438825 0.32 -0.140214 0.374223 -0.916677 38 36 41
0.64 -0.48 0.320785 0.243802 0.469593 -0.848553 24 22 27
0.637287 -0.48 0.32 0.276493 -0.00407531 -0.961007 24 22 27
0.526892 -0.56 0.32 -0.515622 -0.0229132 -0.85651 97 97 100
0.64 -0.56 0.341704 0.411572 -0.0337639 -0.910751 27 27 30
0.592166 -0.56 0.32 0.406232 -0.0278556 -0.913345 27 27 30
0.511402 -0.64 0.32 -0.805521 0.235947 -0.543566 28 27 32
0.64 -0.64 0.32747 0.335729 0.113426 -0.935104 25 25 28
0.618177 -0.64 0.32 0.322074 0.10472 -0.940905 25 25 28
0.56 -0.48 0.309706 -0.0886157 0.170285 -0.981402 25 25 29
0.56 -0.56 0.312642 -0.256311 0.0262796 -0.966237 21 21 25
0.56 -0.64 0.286232 -0.550733 0.261654 -0.79261 27 25 29
1.35949 -0.24 0.48 0.442193 -0.550429 -0.708162 164 139 117
1.36 -0.239596 0.48 0.441529 -0.552643 -0.706851 164 139 117
1.36 -0.24 0.480316 0.442239 -0.551597 -0.707224 164 139 117
1.36 -0.32 0.512414 0.236278 -0.117511 -0.964554 97 69 54
1.30517 -0.32 0.48 0.606965 -0.0985355 -0.788597 97 69 54
1.44 -0.32 0.502254 0.293187 -0.0113686 -0.955988 78 60 54
1.44 -0.24 0.494759 0.214276 -0.317506 -0.923729 78 60 54
1.52 -0.305069 0.56 0.0632489 -0.964518 -0.256329 138 137 135
1.51078 -0.24 0.48 -0.842468 -0.538087 0.0266548 138 137 135
1.49574 -0.32 0.48 -0.799578 0.231064 0.554332 138 137 135
1.52 -0.32 0.522593 -0.741529 -0.212234 0.636468 138 137 135
1.50973 -0.32 0.56 0.626696 -0.185913 -0.756762 138 137 135
1.57446 -0.32 0.56 -0.55995 -0.147967 0.815207 93 101 82
1.36 -0.4 0.503407 0.284316 0.0769722 -0.955636 46 32 31
1.32218 -0.4 0.48 0.587899 0.0924599 -0.803633 46 32 31
1.44 -0.4 0.488824 -0.186072 0.323727 -0.927673 35 23 22
1.52 -0.351612 0.56 -0.211179 0.976582 0.0411194 76 72 70
1.46581 -0.4 0.48 -0.774012 0.576359 0.262138 76 72 70
1.36 -0.48 0.500641 0.32732 0.236932 -0.914727 16 12 19
1.32935 -0.48 0.48 0.634694 0.305993 -0.7096 16 12 19
1.44 -0.48 0.482787 -0.286382 0.331294 -0.899016 16 11 18
1.44849 -0.48 0.48 -0.687313 0.715885 -0.12292 94 93 95
1.36 -0.530141 0.48 0.383931 0.757108 -0.528569 18 15 23
1.44 -0.486989 0.48 -0.632903 0.75487 -0.172062 20 18 25
1.36 -0.600403 0.56 0.155161 -0.920717 -0.358057 20 18 25
1.31447 -0.64 0.56 0.524891 -0.603552 -0.600178 20 18 25
1.28 -0.64 0.529855 0.520271 -0.560824 -0.644046 20 18 25
1.28 -0.574152 0.48 -0.163465 -0.959704 -0.228576 20 18 25
1.36 -0.589389 0.48 -0.299516 -0.942661 0.147242 20 18 25
1.43338 -0.64 0.48 -0.407419 -0.578228 0.706868 18 12 19
1.44 -0.64 0.483485 -0.408019 -0.611466 0.67796 18 12 19
1.44 -0.603169 0.56 -0.366038 -0.891728 0.266155 18 12 19
1.51072 -0.64 0.56 -0.424793 -0.815709 0.392644 35 16 22
1.44 -0.0235048 0.4 0.149749 0.188176 -0.970652 171 174 183
1.41396 -0 0.4 0.174126 0.190631 -0.966095 171 174 183
1.44 -0 0.404257 0.147568 0.176257 -0.97322 171 174 183
1.52 -0 0.413508 0.114685 0.193559 -0.974362 75 81 102
1.52 -0.0686636 0.4 0.131295 0.226014 -0.965235 75 81 102
1.6 -0.08 0.407088 0.0815568 0.314439 -0.945768 94 104 133
1.53938 -0.08 0.4 0.130062 0.301857 -0.944439 94 104 133
1.6 -0 0.424218 0.0721027 0.19435 -0.978279 94 104 133
1.68 -0.08 0.410737 -0.0138247 0.406913 -0.913362 101 115 147
1.68 -0 0.423089 -0.05019 0.128688 -0.990414 101 115 147
1.76 -0.08 0.407657 -0.0418989 0.492217 -0.869464 101 120 152
1.76 -0 0.412139 -0.305081 -0.213821 -0.928012 101 120 152
1.78117 -0 0.4 -0.544279 -0.560186 -0.624461 100 119 151
1.84 -0.0629984 0.4 -0.321713 -0.411975 -0.852512 100 119 151
1.84 -0.08 0.405727 -0.187469 0.338815 -0.921987 100 119 151
1.86531 -0.08 0.4 -0.362627 0.113761 -0.924965 99 116 149
1.6 -0.0995534 0.4 0.0799868 0.397172 -0.914252 17 18 25
1.68 -0.0999416 0.4 -0.0179977 0.509998 -0.859987 18 18 25
1.76 -0.0914355 0.4 -0.0384156 0.560968 -0.826946 18 18 24
1.84 -0.0875263 0.4 -0.153932 0.617694 -0.771206 21 19 24
1.28 -0.24 0.440812 0.400538 -0.425248 -0.811624 81 79 81
1.28 -0.19084 0.4 0.0960163 -0.785868 -0.610895 81 79 81
1.36 -0.188825 0.4 -0.0462198 -0.761044 -0.647052 81 79 81
1.44 -0.207073 0.4 -0.485895 -0.715353 -0.502171 173 176 185
1.44 -0.222528 0.48 -0.0285873 -0.981444 -0.189606 173 176 185
1.46064 -0.24 0.4 -0.605629 0.433244 0.667468 88 96 98
1.28 -0.32 0.45809 0.629624 -0.075651 -0.773208 135 136 135
1.44 -0.259809 0.4 -0.497869 0.47167 0.727773 92 102 81
1.39882 -0.32 0.4 -0.617824 0.308281 0.723364 92 102 81
1.44 -0.32 0.439436 -0.598501 0.36797 0.711614 92 102 81
1.28 -0.4 0.443674 0.647718 0.126693 -0.751272 80 77 75
1.44 -0.4 0.468183 -0.489706 0.137355 0.861 38 38 33
1.36676 -0.4 0.4 -0.879521 0.186866 0.437635 38 38 33
1.28 -0.48 0.431298 0.689311 0.108862 -0.71624 71 70 72
1.44 -0.48 0.475556 -0.431617 0.453258 0.779913 75 74 71
1.36293 -0.48 0.4 -0.921585 0.387747 0.0182525 75 74 71
1.28 -0.56 0.416025 -0.715475 -0.169877 -0.67767 15 13 18
1.36 -0.486181 0.4 -0.86473 0.50086 -0.0371758 15 13 18
1.29474 -0.56 0.4 -0.71525 -0.093862 -0.692537 15 13 18
1.36 -0.616821 0.4 -0.794971 -0.604649 -0.0491928 51 32 35
1.37187 -0.64 0.4 -0.868702 -0.493042 0.0476004 66 23 30
1.36 -0.08 0.373453 0.14376 0.112907 -0.983151 69 71 89
1.28 -0 0.371728 0.169397 0.148386 -0.974313 69 71 89
1.36 -0 0.388076 0.194764 0.1916 -0.961955 69 71 89
1.28 -0.08 0.361921 0.152236 0.0834868 -0.984812 69 71 89
1.44 -0.08 0.387199 0.133747 0.209789 -0.968556 73 78 100
1.52 -0.08 0.397293 0.129561 0.251057 -0.959262 87 95 123
1.77872 -0 0.32 -0.534449 -0.836058 0.12398 100 122 152
1.84 -0.039822 0.32 -0.52202 -0.852891 -0.00848996 100 122 152
1.92 -0.0797436 0.32 -0.442698 -0.891685 0.0944292 102 122 153
1.92 -0.08 0.321459 -0.255157 -0.947238 -0.193998 102 122 153
1.36 -0.16 0.371304 0.0431919 -0.462511 -0.885561 20 25 35
1.28 -0.16 0.356486 0.116489 -0.492426 -0.862524 20 25 35
1.44 -0.16 0.373143 -0.0391434 -0.204411 -0.978102 19 19 27
1.52 -0.16 0.371223 -0.272701 0.538279 -0.797427 17 18 26
1.6 -0.16 0.358573 0.00816773 0.6669 -0.745103 17 17 23
1.68 -0.16 0.352138 -0.0328436 0.609862 -0.791826 17 17 23
1.76 -0.16 0.348427 0.0168386 0.473066 -0.880866 18 17 23
1.84 -0.16 0.351673 -0.177998 0.276819 -0.944292 20 19 24
1.92 -0.16 0.330558 -0.25518 -0.0115928 -0.966824 20 19 26
1.35846 -0.24 0.32 -0.767418 0.611729 0.19198 42 47 48
1.36 -0.24 0.321953 -0.662229 0.533103 0.526548 42 47 48
1.36 -0.23806 0.32 -0.767331 0.619186 0.16677 42 47 48
1.44 -0.188167 0.32 -0.27275 0.93445 -0.228932 49 50 49
1.44 -0.24 0.387109 -0.466337 0.534679 0.704733 49 50 49
1.52 -0.182339 0.32 -0.155752 0.799667 -0.579891 45 46 45
1.6 -0.192079 0.32 0.111671 0.543706 -0.831813 42 41 42
1.84 -0.24 0.338786 -0.0774371 0.0268431 -0.996636 31 32 31
1.76 -0.24 0.331272 0.10307 0.031728 -0.994168 31 32 31
1.92 -0.24 0.323418 -0.2049 0.0711104 -0.976196 28 28 28
1.28 -0.316096 0.32 -0.540594 0.557423 0.63011 87 91 79
1.28 -0.32 0.322761 -0.485878 0.485184 0.726993 87 91 79
1.36 -0.32 0.371376 -0.553534 0.26851 0.788355 87 91 79
1.84 -0.32 0.352286 -0.113876 -0.146942 -0.982568 47 44 42
1.76 -0.32 0.34165 0.137552 -0.125918 -0.982458 47 44 42
1.92 -0.32 0.321551 -0.63678 0.0470889 -0.769606 40 39 39
1.36 -0.4 0.384149 -0.865931 0.111382 0.487604 98 97 91
1.28 -0.4 0.349931 -0.390854 0.110447 0.913802 98 97 91
1.84 -0.4 0.363551 -0.150368 0.0470117 -0.987512 49 48 46
1.76 -0.4 0.350644 0.10692 0.0532173 -0.992842 49 48 46
1.92 -0.327677 0.32 -0.937335 0.142443 0.317984 39 39 37
1.90966 -0.4 0.32 -0.959853 0.106062 -0.25968 39 39 37
1.36 -0.458739 0.32 0.352604 -0.873592 -0.335421 74 73 68
1.33105 -0.48 0.32 0.691849 -0.713069 -0.113483 74 73 68
1.28 -0.48 0.343818 0.377012 -0.233984 0.896166 74 73 68
1.44 -0.476061 0.32 -0.24382 -0.347935 -0.905258 83 75 70
1.44 -0.48 0.321502 -0.251989 -0.332802 -0.908705 83 75 70
1.49397 -0.48 0.32 -0.0255596 -0.232908 -0.972163 58 25 29
1.55164 -0.4 0.32 0.268682 -0.063761 -0.961116 45 34 33
1.6 -0.4 0.334489 0.229269 0.133472 -0.964169 45 34 33
1.6 -0.48 0.323412 0.0856168 -0.00439301 -0.996318 45 34 33
1.53656 -0.48 0.32 0.0436686 -0.126506 -0.991004 45 34 33
1.68 -0.48 0.334926 0.10571 0.127766 -0.986155 66 61 59
1.68 -0.4 0.345992 0.106715 0.128524 -0.985948 66 61 59
1.76 -0.48 0.342075 0.0734506 0.134358 -0.988207 69 70 64
1.84 -0.48 0.346 -0.176585 0.14488 -0.973564 56 56 53
1.90389 -0.48 0.32 -0.881006 0.205133 -0.42632 46 47 44
1.31288 -0.56 0.32 0.788671 0.111016 -0.604709 54 54 51
1.28 -0.56 0.366568 0.764006 0.116538 0.634598 54 54 51
1.36 -0.56 0.344867 -0.527414 -0.101469 -0.843528 54 54 51
1.44 -0.56 0.336596 -0.0584786 -0.151643 -0.986704 72 73 70
1.52 -0.483402 0.32 0.0157091 -0.211387 -0.977276 53 51 50
1.52 -0.56 0.333841 0.00611506 -0.183322 -0.983034 53 51 50
1.6 -0.56 0.334758 -0.0494743 -0.195214 -0.979512 81 79 75
1.68 -0.56 0.326763 -0.047822 -0.0493079 -0.997638 82 83 80
1.76 -0.56 0.327975 0.0887979 0.105933 -0.9904 79 80 75
1.84 -0.56 0.337814 -0.243452 0.0660724 -0.96766 68 68 64
1.88017 -0.56 0.32 -0.782986 0.146518 -0.604537 54 54 53
1.28 -0.64 0.34528 0.41582 -0.23386 0.878865 61 32 36
1.33343 -0.64 0.32 0.936352 -0.00275447 -0.351053 61 32 36
1.44 -0.64 0.344635 -0.155929 -0.227815 -0.961138 54 22 27
1.52 -0.64 0.347916 0.0544919 -0.154532 -0.986484 53 34 36
1.6 -0.64 0.356514 -0.0427274 -0.239635 -0.969922 57 53 51
1.68 -0.64 0.34448 -0.193939 -0.224233 -0.955043 79 80 77
1.76 -0.64 0.321479 0.0428839 0.00796545 -0.999048 78 79 74
1.84 -0.64 0.33892 -0.335412 0.00173992 -0.94207 71 72 68
1.87032 -0.64 0.32 -0.889503 0.0554868 -0.453549 62 63 60
1.74477 -0 0.24 -0.478192 -0.849858 0.221527 105 125 156
1.76 -0.00842195 0.24 -0.472627 -0.853068 0.22113 105 125 156
1.76 -0 0.275352 -0.478131 -0.854378 0.20354 105 125 156
1.84 -0.0508541 0.24 -0.503528 -0.801471 0.322651 103 122 156
1.88444 -0.08 0.24 -0.689901 -0.56045 0.458183 50 66 101
1.92 -0.08 0.319114 -0.538213 -0.80805 0.239547 50 66 101
1.92 -0.16 0.284108 -0.909754 -0.0468934 0.412491 7 7 13
1.89996 -0.16 0.24 -0.873622 -0.0441414 0.484599 7 7 13
1.36 -0.24 0.316577 -0.711694 0.612749 -0.343555 44 44 44
1.28 -0.228321 0.24 0.331446 0.887952 -0.318881 44 44 44
1.28 -0.24 0.257559 0.388426 0.608372 0.692104 44 44 44
1.31129 -0.24 0.24 0.709271 0.683075 -0.174193 44 44 44
1.44 -0.24 0.275357 -0.173777 0.323405 -0.930167 40 40 40
1.52 -0.24 0.281379 0.122775 0.268715 -0.955363 37 37 37
1.6 -0.24 0.299261 0.210248 0.137267 -0.967964 33 33 33
1.68 -0.232867 0.32 0.248156 0.300906 -0.920801 28 28 28
1.68 -0.24 0.317669 0.262618 -0.187692 -0.946469 28 28 28
1.6882 -0.24 0.32 0.272747 -0.0679042 -0.959687 24 25 24
1.92 -0.24 0.302525 -0.907693 0.0866619 0.41059 10 10 12
1.89174 -0.24 0.24 -0.85129 0.1331 0.507532 10 10 12
1.28 -0.305277 0.24 0.900317 -0.431529 -0.0566787 79 56 55
1.28 -0.32 0.284224 -0.468507 0.515895 -0.717185 79 56 55
1.36 -0.32 0.275851 -0.00319331 0.103808 -0.994592 79 56 55
1.44 -0.32 0.284474 0.0293227 -0.0881477 -0.995676 91 34 39
1.52 -0.32 0.292639 0.211198 -0.186396 -0.959506 94 35 39
1.59163 -0.32 0.32 0.346614 -0.215424 -0.912935 49 46 42
1.6 -0.306778 0.32 0.333061 -0.24076 -0.91165 49 46 42
1.68 -0.244185 0.32 0.236288 -0.472213 -0.849224 43 40 38
1.92 -0.32 0.31813 -0.838204 0.132349 0.529053 8 8 9
1.87001 -0.32 0.24 -0.813061 0.158176 0.560279 8 8 9
1.36 -0.4 0.295663 0.0774771 -0.253324 -0.964274 86 26 30
1.28 -0.4 0.285221 0.128632 -0.110198 -0.985551 86 26 30
1.44 -0.4 0.301652 0.0740347 -0.21165 -0.974537 130 109 108
1.52 -0.4 0.309956 0.243302 -0.142874 -0.95937 64 63 58
1.85976 -0.4 0.24 -0.821294 0.117193 0.558339 7 7 8
1.28 -0.48 0.302483 0.282467 -0.201633 -0.937847 67 54 52
1.52 -0.48 0.31926 0.0169063 -0.207872 -0.97801 79 77 73
1.84644 -0.48 0.24 -0.811432 0.103847 0.575147 6 6 7
1.28 -0.56 0.31105 0.269218 0.0136071 -0.962983 33 32 30
1.84 -0.558973 0.24 -0.787374 0.0866244 0.610359 41 41 39
1.83989 -0.56 0.24 -0.786251 0.0886924 0.611509 41 41 39
1.84 -0.56 0.240146 -0.786286 0.0887006 0.611462 41 41 39
1.28 -0.64 0.303685 0.2845 0.0779367 -0.955503 70 62 61
1.84 -0.64 0.274337 -0.783015 0.209311 0.585727 50 50 50
1.80792 -0.64 0.24 -0.736223 0.296438 0.608359 50 50 50
1.72062 -0 0.16 -0.62664 -0.739568 0.245683 100 124 159
1.76 -0.033461 0.16 -0.603757 -0.742837 0.289258 100 124 159
1.81144 -0.08 0.16 -0.709262 -0.480655 0.515672 97 122 157
1.84 -0.08 0.191585 -0.647908 -0.504725 0.570498 97 122 157
1.84 -0.16 0.164204 -0.757463 -0.0865362 0.647117 8 8 13
1.8364 -0.16 0.16 -0.758182 -0.0854245 0.646423 8 8 13
1.28 -0.24 0.231321 0.23568 0.471812 -0.849617 36 36 36
1.84 -0.24 0.170165 -0.806225 0.118287 0.579663 9 9 11
1.83275 -0.24 0.16 -0.801702 0.115271 0.586504 9 9 11
1.84 -0.32 0.198618 -0.799266 0.15009 0.581933 7 7 8
1.81186 -0.32 0.16 -0.801664 0.120984 0.585404 7 7 8
1.84 -0.4 0.21137 -0.823897 0.11056 0.555851 5 5 8
1.80786 -0.4 0.16 -0.845617 0.0902808 0.5261 5 5 8
1.84 -0.48 0.231002 -0.808668 0.102218 0.579316 4 4 6
1.78657 -0.48 0.16 -0.878965 0.131536 0.458387 4 4 6
1.78607 -0.56 0.16 -0.864945 0.189713 0.464629 5 5 7
1.76 -0.623658 0.16 -0.807318 0.330848 0.488648 5 5 7
