ply
format ascii 1.0
comment Generated by the ZED SDK.
element vertex 780
property float32 x
property float32 y
property float32 z
property float32 nx
property float32 ny
property float32 nz
property uchar red
property uchar green
property uchar blue
end_header
-0.85 1.64874 -4.4 -0.0567838 -0.99771 0.0367489 116 116 112
-0.8 1.64342 -4.45 -0.0686827 -0.996943 0.0372388 116 116 112
-0.8 1.64533 -4.4 -0.0679143 -0.996967 0.0380097 116 116 112
-1.2 1.65571 -4.5 -0.288433 -0.932498 0.217382 137 137 135
-1.18154 1.65 -4.5 -0.304769 -0.926385 0.221193 137 137 135
-1.07006 1.65 -4.5 0.0297287 -0.999189 0.0271412 126 126 124
-1.05 1.65044 -4.5 0.0227444 -0.998371 0.0523239 126 126 124
-1 1.65206 -4.5 -0.0017813 -0.997996 0.0632516 117 117 115
-0.95 1.6501 -4.5 -0.0138448 -0.999721 0.0191612 115 115 113
-0.9 1.65232 -4.5 -0.0832864 -0.996413 -0.014999 113 113 110
-0.881354 1.65 -4.5 -0.124121 -0.992177 0.0133612 116 117 113
-1.15 1.63758 -4.5 -0.0887057 -0.989365 0.115278 141 143 142
-1.1 1.64919 -4.5 0.0913236 -0.994991 0.0406592 132 132 130
-0.85 1.64603 -4.5 -0.0837854 -0.996327 0.0176755 117 118 112
-0.8 1.6437 -4.5 -0.0522891 -0.998591 0.00905771 116 117 112
-1.2 1.65 -4.5245 -0.283447 -0.934892 0.213624 136 136 136
-1.05 1.65 -4.50852 0.0231135 -0.998336 0.0528359 123 123 121
-1 1.65 -4.53161 -0.00146932 -0.997799 0.0662934 118 118 116
-0.95 1.65 -4.50582 -0.0169103 -0.999661 0.0197887 112 113 109
-0.9 1.65 -4.54775 -0.0225986 -0.998567 0.048517 116 116 112
-1.2 1.64429 -4.55 -0.20595 -0.973919 0.0952212 140 141 139
-1.15 1.63788 -4.55 -0.021339 -0.999741 0.00795095 140 141 139
-1.1 1.64077 -4.55 0.0998789 -0.993762 0.0496033 134 135 133
-1.05 1.64764 -4.55 0.0678605 -0.99478 0.0762049 127 127 125
-1 1.64874 -4.55 0.00716763 -0.998643 0.051589 123 123 121
-0.95 1.64923 -4.55 0.00971708 -0.999782 0.018495 115 115 113
-0.9 1.64989 -4.55 -0.0245374 -0.998573 0.047437 115 116 112
-0.85 1.64442 -4.55 -0.0672675 -0.997562 0.0185847 119 120 115
-0.8 1.64309 -4.55 -0.0315681 -0.999421 0.0127106 115 116 111
-1.15 1.63545 -4.6 -0.000365627 -0.998582 0.0532407 139 140 140
-1.2 1.64399 -4.6 -0.154663 -0.986829 0.0474072 139 140 140
-1.1 1.64367 -4.6 0.072974 -0.997166 0.0183051 131 131 130
-1.05 1.6433 -4.6 0.0588407 -0.997855 0.0286893 127 127 125
-1 1.64737 -4.6 0.0433904 -0.998964 0.0137272 121 121 119
-0.95 1.64852 -4.6 0.00239049 -0.999952 0.00947606 119 119 115
-0.9 1.64822 -4.6 -0.0418786 -0.998698 0.0291238 117 118 113
-0.85 1.64414 -4.6 -0.0541033 -0.998312 0.0211152 119 119 114
-0.8 1.64293 -4.6 -0.0247557 -0.999634 0.0108791 117 118 113
-1.15 1.63234 -4.65 0.00519584 -0.998327 0.0575942 138 140 138
-1.2 1.63804 -4.65 -0.1231 -0.990112 0.0672631 138 140 138
-1.1 1.63931 -4.65 0.11038 -0.992315 0.055924 131 131 130
-1.05 1.64254 -4.65 0.0779718 -0.996833 0.0156178 123 124 121
-1 1.64822 -4.65 0.0580629 -0.998313 0.000841381 119 119 116
-0.95 1.64889 -4.65 -0.0136184 -0.999899 0.0041678 116 117 113
-0.9 1.6468 -4.65 -0.062698 -0.997755 0.0235336 113 114 110
-0.85 1.64244 -4.65 -0.0442382 -0.998346 0.0367327 117 118 112
-0.8 1.64206 -4.65 -0.0116712 -0.999574 0.0267463 116 117 113
-1.15 1.63045 -4.7 -0.0113747 -0.999389 0.0330491 134 135 134
-1.2 1.63819 -4.7 -0.146719 -0.989018 0.0177812 134 135 134
-1.1 1.6371 -4.7 0.126872 -0.990405 0.0547829 131 132 129
-1.05 1.64281 -4.7 0.104615 -0.994272 0.021888 125 126 123
-1 1.64779 -4.7 0.0534935 -0.998537 0.00790631 119 120 116
-0.95 1.64804 -4.7 -0.0251037 -0.999506 0.0189121 112 113 110
-0.9 1.64571 -4.7 -0.0753276 -0.996529 0.0354492 114 115 110
-0.85 1.64017 -4.7 -0.047485 -0.998131 0.0384604 118 119 114
-0.8 1.64067 -4.7 0.00561228 -0.999237 0.0386399 115 116 111
-1.15 1.62914 -4.75 -0.0297124 -0.998805 0.0388036 134 134 134
-1.2 1.6356 -4.75 -0.128159 -0.990809 0.0432812 134 134 134
-1.1 1.63333 -4.75 0.122029 -0.990473 0.063812 129 129 126
-1.05 1.6405 -4.75 0.137656 -0.989442 0.0453268 125 125 123
-1 1.64728 -4.75 0.0715361 -0.997373 0.011348 119 119 116
-0.95 1.64743 -4.75 -0.0539785 -0.998537 -0.00331161 113 113 109
-0.9 1.64295 -4.75 -0.0862255 -0.995124 0.0479003 115 115 110
-0.85 1.63835 -4.75 -0.0436877 -0.997858 0.0486996 118 119 114
-0.8 1.63864 -4.75 0.00675295 -0.999036 0.0433654 116 117 112
-1.15 1.62735 -4.8 -0.0404834 -0.998543 0.035671 132 134 133
-1.2 1.63384 -4.8 -0.128765 -0.991063 0.0348263 132 134 133
-1.1 1.62968 -4.8 0.116646 -0.991177 0.06295 128 129 126
-1.05 1.63827 -4.8 0.157296 -0.986238 0.0509247 122 122 120
-1 1.64635 -4.8 0.104441 -0.99422 0.0248843 119 119 116
-0.95 1.64947 -4.8 -0.0717751 -0.997092 -0.0256092 114 115 111
-0.9 1.64048 -4.8 -0.117021 -0.992759 0.0271065 116 116 111
-0.85 1.63538 -4.8 -0.0395736 -0.997604 0.0567535 116 117 112
-0.8 1.63622 -4.8 0.0112099 -0.998491 0.0537556 115 116 110
-1.31145 1.65 -5.2 -0.171662 -0.979223 0.107955 136 139 140
-1.35 1.65594 -5.2 -0.152327 -0.987864 0.0303664 136 139 140
-1.35 1.65441 -5.25 0.151451 -0.973269 0.172655 136 139 140
-1.33457 1.65 -5.25 -0.262523 -0.951983 0.157515 136 139 140
-1.3 1.64182 -5.25 -0.296249 -0.947408 0.121057 129 134 141
-1.3 1.64809 -5.2 -0.208242 -0.970488 0.121607 129 134 141
-1.25 1.61804 -5.25 -0.408963 -0.907424 0.0965966 134 137 138
-1.25 1.62421 -5.2 -0.422753 -0.899426 0.110967 134 137 138
-1.20701 1.6 -5.25 -0.372173 -0.925696 0.0676267 129 131 130
-1.2 1.6 -5.21192 -0.39204 -0.916409 0.0806151 129 131 130
-1.2 1.60108 -5.2 -0.397599 -0.913347 0.0878244 129 131 130
-1.35822 1.65 -5.25 0.517316 -0.836505 0.180676 137 143 146
-1.35 1.65 -5.27354 0.351753 -0.916731 0.189407 137 143 146
-1.4 1.61111 -5.3 0.653591 -0.74332 -0.142455 189 186 194
-1.35 1.64433 -5.3 -0.19903 -0.974417 0.104399 189 186 194
-1.39265 1.6 -5.25 0.781001 -0.603773 -0.159675 189 186 194
-1.4 1.6 -5.27876 0.875772 -0.427765 -0.223698 189 186 194
-1.3 1.63574 -5.3 -0.306962 -0.948804 0.0744691 134 139 144
-1.25 1.61293 -5.3 -0.364488 -0.922262 0.128771 135 136 137
-1.21066 1.6 -5.3 -0.302631 -0.949151 0.0867626 128 129 129
-1.3 1.63606 -5.35 -0.322276 -0.94449 0.0638491 136 138 142
-1.35 1.64214 -5.35 -0.152117 -0.986563 0.0596137 136 138 142
-1.25 1.60297 -5.35 -0.273811 -0.958552 0.0787795 133 135 134
-1.23498 1.6 -5.35 -0.193192 -0.978445 0.0729587 127 129 127
-1.3 1.62888 -5.4 -0.350382 -0.930316 0.108373 139 142 144
-1.35 1.64152 -5.4 -0.253339 -0.965752 0.0560561 139 142 144
-1.25 1.60018 -5.4 -0.219266 -0.972636 0.0768244 133 136 135
-1.24919 1.6 -5.4 -0.216931 -0.973164 0.0767691 123 124 122
-1.3 1.62263 -5.45 -0.374575 -0.921886 0.0990989 138 142 143
-1.35 1.63717 -5.45 -0.305565 -0.949949 0.0650134 138 142 143
-1.25655 1.6 -5.45 -0.437355 -0.897519 0.0563889 132 135 133
-1.25 1.6 -5.40226 -0.235322 -0.968853 0.0771153 132 135 133
-1.3 1.61703 -5.5 -0.371131 -0.928517 -0.0108601 135 138 140
-1.35 1.63758 -5.5 -0.105553 -0.994023 -0.0278704 135 138 140
-1.25594 1.6 -5.5 -0.381655 -0.924185 -0.0149006 131 133 132
-1.4 1.60992 -5.5 0.323282 -0.922472 -0.211028 137 144 150
-1.35 1.63888 -5.55 -0.0655018 -0.994444 -0.0824103 137 144 150
-1.4 1.63042 -5.55 0.158911 -0.959763 -0.23152 137 144 150
-1.3 1.62084 -5.55 -0.393478 -0.919076 0.021785 134 138 139
-1.25885 1.6 -5.55 -0.449055 -0.89225 0.0473262 125 126 124
-1.35 1.64321 -5.6 -0.146044 -0.985273 -0.088928 133 138 147
-1.4 1.63542 -5.6 0.153264 -0.983291 -0.0982311 133 138 147
-1.3 1.61667 -5.6 -0.425787 -0.903808 0.0428513 131 134 136
-1.26597 1.6 -5.6 -0.439111 -0.896254 0.0625309 123 123 121
-0.9 1.65694 -3.2 -0.0769905 -0.996589 -0.0297023 138 139 139
-0.85 1.65457 -3.25 0.0199997 -0.997266 -0.071137 138 139 139
-0.85 1.65216 -3.2 -0.0304694 -0.997546 -0.0630328 138 139 139
-0.9 1.65752 -3.25 -0.0589733 -0.998192 -0.011609 138 139 139
-0.8 1.65778 -3.25 0.0488793 -0.99249 -0.112135 137 137 137
-0.8 1.65237 -3.2 0.00425713 -0.994195 -0.107512 137 137 137
-0.8 1.6652 -3.3 0.0798825 -0.993855 -0.076625 136 136 136
-0.85 1.66092 -3.3 0.0540019 -0.993206 -0.103082 136 136 136
-0.8 1.66612 -3.35 -0.00852921 -0.998735 -0.0495538 112 112 110
-0.85 1.66811 -3.35 -0.0452912 -0.995292 -0.0856824 112 112 110
-0.8 1.66703 -3.4 -0.0565254 -0.998265 0.0164638 120 120 118
-0.85 1.67015 -3.4 -0.0537937 -0.998517 0.00840033 120 120 118
-0.9 1.67102 -3.4 0.0104601 -0.998637 0.0511289 120 120 119
-0.85 1.66899 -3.45 -0.0292898 -0.999523 0.00978328 120 120 119
-0.9 1.66705 -3.45 0.0561356 -0.997436 0.0443839 120 120 119
-0.8 1.66389 -3.45 -0.0915731 -0.995777 0.00654199 118 118 117
-0.85 1.67026 -3.5 -0.0150383 -0.999657 -0.0214559 119 119 117
-0.9 1.66481 -3.5 0.0236642 -0.999272 0.0299287 119 119 117
-0.8 1.66538 -3.5 -0.0979679 -0.99341 -0.0594887 117 117 117
-0.95 1.66826 -3.5 -0.103412 -0.994638 -0.00103134 120 121 119
-0.9 1.66312 -3.55 0.0104842 -0.999807 0.0165854 120 121 119
-0.95 1.67006 -3.55 -0.137345 -0.989889 -0.0354531 120 121 119
-0.85 1.66935 -3.55 0.06448 -0.997678 0.0219326 119 119 117
-0.8 1.67001 -3.55 -0.0419168 -0.998439 -0.0369203 118 118 117
-0.9 1.66095 -3.6 0.0691939 -0.99651 0.0466888 118 118 116
-0.95 1.66721 -3.6 -0.124134 -0.990665 0.0563389 118 118 116
-0.85 1.67504 -3.6 0.113987 -0.99056 -0.0761425 116 116 115
-0.8 1.67675 -3.6 0.0235263 -0.992092 -0.123287 116 116 115
0 1.64614 -2.8 -0.0292464 -0.999124 -0.0299204 118 120 118
0.05 1.64617 -2.85 0.00379622 -0.999954 -0.00886923 118 120 118
0.05 1.64487 -2.8 -0.0103553 -0.998946 -0.0447267 118 120 118
0 1.64783 -2.85 -0.0356011 -0.99924 -0.0158861 118 120 118
0.1 1.64828 -2.85 -0.00154579 -0.999428 -0.0337967 115 117 115
0.1 1.64323 -2.8 -0.0278316 -0.99502 -0.0957067 115 117 115
0.15 1.64664 -2.85 -0.0429463 -0.997779 -0.0509221 109 111 109
0.15 1.64254 -2.8 -0.0389862 -0.99611 -0.0790219 109 111 109
0.2 1.64315 -2.85 -0.0526402 -0.996508 -0.0648112 113 115 114
0.2 1.63958 -2.8 -0.0471507 -0.996653 -0.0667787 113 115 114
0.25 1.64094 -2.85 -0.0431615 -0.997111 -0.062508 113 113 112
0.25 1.63824 -2.8 -0.022489 -0.998836 -0.0426676 113 113 112
0.3 1.63891 -2.85 -0.0328353 -0.999054 -0.0285114 107 109 106
0.3 1.63845 -2.8 -0.0123247 -0.999858 -0.0114494 107 109 106
0.35 1.6377 -2.85 -0.0454632 -0.998951 -0.00551335 111 112 112
0.35 1.63677 -2.8 -0.0417072 -0.999032 -0.0139722 111 112 112
0.4 1.63474 -2.85 -0.0543796 -0.998502 0.006124 109 110 109
0.4 1.63475 -2.8 -0.0403814 -0.999184 7.62314e-05 109 110 109
0.05 1.64582 -2.9 -0.0144385 -0.999892 0.0027607 117 119 116
0 1.64798 -2.9 -0.0399823 -0.999199 0.001798 117 119 116
0.1 1.64727 -2.9 0.0125415 -0.999705 0.0207883 112 114 112
0.15 1.64684 -2.9 -0.0235968 -0.999596 0.0158113 107 108 107
0.2 1.64567 -2.9 -0.0308497 -0.999455 0.0117573 111 112 110
0.25 1.6446 -2.9 -0.0420684 -0.999114 0.00144504 108 109 107
0.3 1.64136 -2.9 -0.0624177 -0.998025 -0.00705298 111 112 112
0.35 1.63771 -2.9 -0.0716641 -0.997414 0.00549656 108 110 108
0.4 1.63367 -2.9 -0.0752297 -0.996961 0.0202291 104 106 105
0.05 1.6458 -2.95 -0.0193674 -0.999811 0.00162066 115 116 114
0 1.64735 -2.95 -0.0372849 -0.999295 -0.00433023 115 116 114
0.1 1.64596 -2.95 0.00142485 -0.999564 0.0294867 110 111 108
0.15 1.64582 -2.95 -0.0318297 -0.998839 0.036146 110 112 110
0.2 1.64281 -2.95 -0.0471023 -0.997699 0.0487666 111 113 111
0.25 1.64069 -2.95 -0.0353651 -0.99742 0.0624715 109 110 108
0.3 1.63898 -2.95 -0.0423725 -0.997791 0.0511733 104 104 103
0.35 1.63664 -2.95 -0.0683997 -0.997225 0.0293762 108 110 109
0.4 1.63217 -2.95 -0.0869456 -0.996012 0.020013 108 109 108
0.05 1.64622 -3 -0.048703 -0.99879 -0.0068382 115 116 114
0 1.64905 -3 -0.05797 -0.99809 -0.0213458 115 116 114
0.1 1.6442 -3 -0.0258649 -0.999359 0.0247701 114 115 113
0.15 1.64326 -3 -0.0346206 -0.998607 0.0398234 112 113 110
0.2 1.64038 -3 -0.0499309 -0.998179 0.0338485 109 112 110
0.25 1.63805 -3 -0.0383182 -0.998893 0.0272816 109 111 110
0.3 1.63643 -3 -0.0307461 -0.999247 0.0236703 111 112 110
0.35 1.63482 -3 -0.0505653 -0.998651 0.0118384 108 108 107
0.4 1.63144 -3 -0.0728427 -0.997342 0.0014811 105 107 106
0.05 1.64651 -3.05 -0.0639504 -0.997913 0.00897372 111 113 111
0 1.64963 -3.05 -0.0815477 -0.996613 -0.0105728 111 113 111
0.1 1.64311 -3.05 -0.0485236 -0.99869 0.0162551 114 115 113
0.15 1.64148 -3.05 -0.0372452 -0.998784 0.0323067 112 114 112
0.2 1.63921 -3.05 -0.0365786 -0.998935 0.0281352 109 111 108
0.25 1.63785 -3.05 -0.0286876 -0.999484 0.014427 110 111 109
0.3 1.63646 -3.05 -0.022474 -0.999732 0.00555373 108 108 107
0.35 1.63554 -3.05 -0.0390682 -0.999223 -0.00525474 106 107 106
0.4 1.63257 -3.05 -0.0613116 -0.998027 -0.0135609 105 107 105
0.00657049 1.65 -3.1 -0.101172 -0.99448 -0.0278308 113 115 112
0 1.65 -3.06782 -0.101589 -0.994614 -0.020531 113 115 112
0 1.65066 -3.1 -0.0992519 -0.994634 -0.0291933 113 115 112
0.05 1.64554 -3.1 -0.0716193 -0.997428 0.00280787 112 113 111
0.1 1.64275 -3.1 -0.0622762 -0.998042 -0.00575792 112 114 111
0.15 1.63985 -3.1 -0.0490724 -0.998685 0.0148513 112 114 111
0.2 1.63759 -3.1 -0.0319117 -0.999278 0.0206275 109 110 109
0.25 1.63673 -3.1 -0.0166469 -0.999724 0.0166025 107 108 107
0.3 1.63581 -3.1 -0.0125488 -0.999918 0.00254603 110 111 110
0.35 1.63537 -3.1 -0.028068 -0.999555 -0.0100802 106 107 106
0.4 1.63301 -3.1 -0.0501806 -0.998582 -0.0177629 104 105 104
0 1.65282 -3.15 -0.145322 -0.988756 0.0352543 113 114 111
0.0190734 1.65 -3.15 -0.148953 -0.988423 0.0288466 113 114 111
0.05 1.6452 -3.15 -0.0872595 -0.99585 0.025837 111 112 110
0.1 1.64424 -3.15 -0.0540769 -0.99847 0.0115657 109 110 108
0.15 1.63974 -3.15 -0.0636777 -0.997968 0.00207991 111 112 111
0.2 1.63721 -3.15 -0.0363182 -0.99934 0.00121192 108 110 108
0.25 1.63607 -3.15 -0.0130251 -0.999887 0.00756498 109 110 109
0.3 1.6361 -3.15 0.00542855 -0.999968 0.00591999 104 105 103
0.35 1.63655 -3.15 -0.013734 -0.99979 -0.0152213 107 109 108
0.4 1.63465 -3.15 -0.0402414 -0.998779 -0.0286648 105 106 105
0 1.65 -3.18297 -0.152267 -0.984406 0.0880834 109 111 109
0 1.64844 -3.2 -0.142934 -0.986661 0.07791 109 110 109
0.05 1.64279 -3.2 -0.0682043 -0.996522 0.0478838 109 110 109
0.1 1.64157 -3.2 -0.0364608 -0.997986 0.0519136 104 105 103
0.15 1.63901 -3.2 -0.0509108 -0.998407 0.0243161 108 110 108
0.2 1.63743 -3.2 -0.0332118 -0.999448 0.000407151 110 112 109
0.25 1.63616 -3.2 -0.0221474 -0.999752 -0.00239228 109 110 109
0.3 1.63515 -3.2 0.011715 -0.999836 0.0137845 109 110 108
0.35 1.63682 -3.2 0.00348087 -0.999994 0.000730894 108 109 108
0.4 1.63611 -3.2 -0.0260628 -0.999512 -0.0172338 101 102 101
-0.4 1.67184 -2.8 -0.113306 -0.993554 0.00337982 121 121 119
-0.35 1.66597 -2.85 -0.085628 -0.995797 0.0325043 121 121 119
-0.35 1.66583 -2.8 -0.0934168 -0.99559 -0.00859569 121 121 119
-0.4 1.67137 -2.85 -0.100407 -0.994086 0.0413629 121 121 119
-0.3 1.66317 -2.85 -0.04405 -0.998681 0.0263755 118 119 116
-0.3 1.66186 -2.8 -0.0615891 -0.997603 -0.031553 118 119 116
-0.25 1.66151 -2.85 -0.0864602 -0.996252 -0.00242801 118 119 115
-0.25 1.65911 -2.8 -0.0947067 -0.994705 -0.0399082 118 119 115
-0.2 1.65394 -2.85 -0.0613291 -0.997982 -0.0164229 119 120 118
-0.2 1.65311 -2.8 -0.0580813 -0.998008 -0.0246344 119 120 118
-0.15 1.65489 -2.85 -0.0284753 -0.999316 -0.0236069 116 117 115
-0.15 1.65244 -2.8 -0.0385996 -0.998162 -0.0467178 116 117 115
-0.1 1.65159 -2.85 -0.0483304 -0.998383 -0.0299205 118 120 116
-0.1 1.65 -2.81091 -0.0526168 -0.997803 -0.0402611 118 120 116
-0.108007 1.65 -2.8 -0.054884 -0.997682 -0.04022 118 120 116
-0.0646941 1.65 -2.85 -0.0463908 -0.997976 -0.0435023 113 114 112
-0.1 1.64956 -2.8 -0.0535907 -0.997765 -0.0399105 118 119 116
-0.05 1.64931 -2.85 -0.0472559 -0.998023 -0.0414328 113 114 112
-0.05 1.64801 -2.8 -0.0322319 -0.99909 -0.027917 113 114 112
0 1.64783 -2.85 -0.0315106 -0.999369 -0.0164118 116 118 116
0 1.64614 -2.8 -0.0373628 -0.998731 -0.033779 116 118 116
-0.35 1.66297 -2.9 -0.0749479 -0.996032 0.0479987 118 118 116
-0.4 1.66697 -2.9 -0.0742111 -0.994773 0.0701439 118 118 116
-0.3 1.65915 -2.9 -0.0424118 -0.998401 0.0373636 116 116 112
-0.25 1.65888 -2.9 -0.0452638 -0.998307 0.0365318 115 116 114
-0.2 1.65438 -2.9 -0.044183 -0.999006 -0.00593503 116 116 112
-0.15 1.65531 -2.9 -0.0262179 -0.999594 -0.0111601 115 116 113
-0.1 1.65159 -2.9 -0.0370772 -0.999236 -0.0123248 120 121 118
-0.05 1.65149 -2.9 -0.0568276 -0.99833 -0.010392 115 117 115
-0.05 1.65 -2.86544 -0.0539851 -0.997563 -0.0441919 115 117 115
-0.0280646 1.65 -2.9 -0.0695011 -0.997546 -0.00846367 119 120 117
0 1.64798 -2.9 -0.0604762 -0.998167 -0.00247032 115 117 115
-0.35 1.66086 -2.95 -0.0452891 -0.998946 0.00752381 119 120 118
-0.4 1.66378 -2.95 -0.0493378 -0.998499 0.0237673 119 120 118
-0.3 1.65958 -2.95 -0.0382151 -0.999193 -0.0123423 120 120 118
-0.25 1.65762 -2.95 -0.0369933 -0.999285 -0.00784492 116 117 115
-0.2 1.65541 -2.95 -0.0292204 -0.999439 -0.0163501 119 120 118
-0.15 1.65586 -2.95 -0.0256567 -0.999671 -0.00070167 111 113 111
-0.1 1.65272 -2.95 -0.0491844 -0.998788 -0.00207868 119 120 118
-0.0527985 1.65 -2.95 -0.0552493 -0.99847 0.00221968 116 117 114
-0.05 1.65 -2.94548 -0.0565889 -0.99781 0.0342355 116 117 114
-0.05 1.64985 -2.95 -0.0552223 -0.998471 0.00234217 115 115 114
0 1.64735 -2.95 -0.0499193 -0.998696 -0.0107376 117 119 116
-0.35 1.66255 -3 -0.0307713 -0.999192 -0.0258355 120 121 119
-0.4 1.66368 -3 -0.0331163 -0.999206 -0.0221406 120 121 119
-0.3 1.66097 -3 -0.0379062 -0.998963 -0.0252153 120 120 118
-0.25 1.65919 -3 -0.0386489 -0.999201 -0.0102132 119 119 117
-0.2 1.65717 -3 -0.0441134 -0.999002 -0.00706396 121 121 118
-0.15 1.65527 -3 -0.0414182 -0.998941 0.0200306 114 114 112
-0.1 1.65211 -3 -0.0367623 -0.999211 0.0149965 115 117 115
-0.05 1.65145 -3 -0.0392533 -0.999199 -0.00774654 114 116 113
-0.05 1.65 -2.95488 -0.0543296 -0.99802 -0.0316756 114 116 113
-0.0197195 1.65 -3 -0.0456069 -0.99883 -0.016065 116 117 114
0 1.64905 -3 -0.0481445 -0.998634 -0.0203136 114 114 112
-0.35 1.66381 -3.05 -0.0407678 -0.998913 -0.0226108 117 118 116
-0.4 1.66705 -3.05 -0.0577355 -0.997804 -0.0324755 117 118 116
-0.3 1.66255 -3.05 -0.0450319 -0.998719 -0.0230827 121 121 119
-0.25 1.65871 -3.05 -0.0484483 -0.998249 -0.0339426 114 116 113
-0.2 1.65661 -3.05 -0.0565356 -0.997343 -0.0459346 117 117 114
-0.15 1.65293 -3.05 -0.0525847 -0.998067 -0.0331189 115 115 113
-0.1 1.65108 -3.05 -0.0285009 -0.999218 -0.0274137 114 115 113
-0.05 1.65094 -3.05 -0.0224206 -0.999628 -0.0155366 116 117 115
-0.0138444 1.65 -3.05 -0.0263484 -0.999554 -0.014067 114 116 113
0 1.64963 -3.05 -0.0269877 -0.999503 -0.016309 112 114 111
-0.35 1.6644 -3.1 -0.0419651 -0.999094 -0.00713626 116 117 113
-0.4 1.66626 -3.1 -0.0369793 -0.999316 0.000517334 116 117 113
-0.3 1.6627 -3.1 -0.0285866 -0.999588 0.00242735 117 117 116
-0.25 1.66152 -3.1 -0.0136569 -0.999766 -0.0167938 115 115 114
-0.2 1.66168 -3.1 -0.0307154 -0.997969 -0.0558026 115 115 113
-0.15 1.65837 -3.1 -0.060268 -0.994763 -0.0825503 117 117 115
-0.1 1.65573 -3.1 -0.0494288 -0.995965 -0.0748999 114 114 113
-0.05 1.65344 -3.1 -0.0448537 -0.997711 -0.0506097 116 116 114
0 1.65066 -3.1 -0.0458491 -0.998257 -0.0371627 115 115 114
0 1.65 -3.06782 -0.0263653 -0.999443 -0.0204785 115 115 114
-0.35 1.66517 -3.15 -0.0477825 -0.998583 0.0234184 120 120 118
-0.4 1.66696 -3.15 -0.0511959 -0.998659 0.00772789 120 120 118
-0.3 1.66229 -3.15 -0.0441802 -0.998301 0.0379847 118 118 116
-0.25 1.66074 -3.15 -0.000501353 -0.998597 0.0529529 116 117 114
-0.2 1.66216 -3.15 0.0029763 -0.998987 0.0448947 114 114 113
-0.15 1.66135 -3.15 -0.0431498 -0.99877 0.0244134 117 117 116
-0.1 1.65864 -3.15 -0.0584677 -0.998014 0.0234334 115 116 113
-0.05 1.65543 -3.15 -0.0557782 -0.998008 0.0294839 112 113 111
0 1.65282 -3.15 -0.046645 -0.998359 0.0332194 113 114 112
-0.35 1.66215 -3.2 -0.0656611 -0.996836 0.0448078 117 117 115
-0.4 1.66702 -3.2 -0.0969869 -0.995285 -0.00127665 117 117 115
-0.3 1.65889 -3.2 -0.0580568 -0.99615 0.0656843 117 117 115
-0.25 1.65613 -3.2 -0.00805857 -0.996281 0.0857861 115 116 113
-0.2 1.65747 -3.2 0.00601329 -0.995643 0.0930573 115 115 113
-0.15 1.65669 -3.2 -0.0158618 -0.995535 0.0930553 114 115 113
-0.1 1.65328 -3.2 -0.0607902 -0.992825 0.102975 113 114 110
-0.15 1.65669 -3.2 -0.0678846 -0.993401 0.0924455 113 114 110
-0.05 1.65022 -3.2 -0.0443456 -0.994087 0.0991178 114 115 112
-0.0442618 1.65 -3.2 -0.0372712 -0.994598 0.0968791 113 114 112
0 1.65 -3.18297 -0.0345187 -0.995409 0.0892681 113 114 112
0 1.64844 -3.2 -0.0350332 -0.995229 0.0910619 109 111 108
0.8 1.6 -3.24013 -0.684411 -0.725588 0.0714405 64 65 58
0.804189 1.6 -3.2 -0.684411 -0.725588 0.0714405 64 65 58
0.8 1.60395 -3.2 -0.684411 -0.725588 0.0714405 64 65 58
-0.8 1.66699 -2.8 0.0123849 -0.999845 0.0125327 134 134 134
-0.75 1.66698 -2.85 0.0516834 -0.998656 -0.00395146 134 134 134
-0.75 1.66471 -2.8 0.0208793 -0.998893 -0.0421518 134 134 134
-0.8 1.66345 -2.85 0.0878276 -0.995008 0.0473811 134 134 134
-0.7 1.67105 -2.85 0.0356949 -0.999326 0.00857785 134 134 134
-0.7 1.66945 -2.8 0.0247295 -0.998843 -0.0412466 134 134 134
-0.65 1.66973 -2.85 -0.0158558 -0.999729 -0.0170157 126 127 126
-0.65 1.66629 -2.8 -0.0139833 -0.998107 -0.059894 126 127 126
-0.6 1.67061 -2.85 -0.00366806 -0.999976 0.00583321 127 127 126
-0.6 1.66892 -2.8 0.00963831 -0.999574 -0.027543 127 127 126
-0.55 1.66833 -2.85 -0.0186747 -0.999825 0.00117861 123 124 122
-0.55 1.66788 -2.8 -0.0113449 -0.999881 -0.0104662 123 124 122
-0.5 1.66838 -2.85 0.0259273 -0.999658 0.00325433 124 124 122
-0.5 1.66763 -2.8 0.0366673 -0.999318 -0.00447263 124 124 122
-0.45 1.67126 -2.85 0.0285467 -0.999057 0.032704 123 123 121
-0.45 1.67264 -2.8 0.0462894 -0.998664 0.0229531 123 123 121
-0.4 1.67137 -2.85 -0.00232813 -0.998588 0.0530801 121 121 119
-0.4 1.67184 -2.8 -0.0158378 -0.99983 0.00948026 121 121 119
-0.75 1.66752 -2.9 0.0639676 -0.997618 0.0258217 133 134 134
-0.8 1.66047 -2.9 0.11285 -0.993281 0.0256548 133 134 134
-0.7 1.66774 -2.9 0.022954 -0.998658 0.0464342 131 131 131
-0.65 1.66914 -2.9 -0.0057653 -0.999238 0.0385904 132 132 130
-0.6 1.6673 -2.9 -0.00513174 -0.999526 0.0303661 125 125 124
-0.55 1.66741 -2.9 -0.00274138 -0.99999 0.00341043 120 120 119
-0.5 1.66764 -2.9 0.0156266 -0.999877 0.00143055 123 123 121
-0.45 1.66949 -2.9 -0.0100943 -0.999533 0.0288532 118 118 116
-0.4 1.66697 -2.9 -0.0372524 -0.997346 0.0625631 118 118 116
-0.75 1.66517 -2.95 0.04023 -0.999006 0.0192035 136 137 137
-0.8 1.66355 -2.95 0.0375491 -0.999232 -0.0112331 136 137 137
-0.7 1.66572 -2.95 0.00229548 -0.999793 0.0201978 130 130 130
-0.65 1.666 -2.95 0.0150814 -0.999197 0.0371205 132 132 131
-0.6 1.66635 -2.95 0.0176666 -0.999808 0.0084847 125 125 124
-0.55 1.6686 -2.95 0.0186467 -0.999817 -0.00429862 122 122 121
-0.5 1.66876 -2.95 -0.00270204 -0.999984 -0.00489956 122 122 120
-0.45 1.66872 -2.95 -0.0403753 -0.999037 0.017149 119 120 118
-0.4 1.66378 -2.95 -0.0863878 -0.996047 0.0206529 121 121 119
-0.75 1.66373 -3 0.0494192 -0.998529 -0.0223129 133 133 133
-0.8 1.66109 -3 0.0809631 -0.996628 0.0133332 133 133 133
-0.7 1.66631 -3 0.00792062 -0.998971 -0.0446627 136 136 136
-0.65 1.66454 -3 0.0106929 -0.998939 -0.0447984 132 132 131
-0.6 1.66729 -3 0.0304574 -0.998592 -0.0434232 128 128 126
-0.55 1.66838 -3 0.00781221 -0.999582 -0.0278282 120 120 118
-0.5 1.66851 -3 -0.0155719 -0.999876 -0.00230042 123 123 122
-0.45 1.66686 -3 -0.0366261 -0.999323 0.00359431 120 120 119
-0.4 1.66368 -3 -0.0721897 -0.997106 -0.0238198 119 119 118
-0.75 1.66771 -3.05 0.0925702 -0.995535 -0.0184683 135 135 135
-0.8 1.65939 -3.05 0.1666 -0.985679 0.0261145 135 135 135
-0.7 1.67021 -3.05 0.0289574 -0.999065 -0.0321075 135 135 135
-0.65 1.67044 -3.05 0.00910916 -0.99858 -0.0524825 134 134 132
-0.6 1.6715 -3.05 0.0237105 -0.998253 -0.0541109 127 127 126
-0.55 1.67184 -3.05 -0.026959 -0.998022 -0.0567964 126 126 124
-0.5 1.66903 -3.05 -0.0337849 -0.999101 -0.0256065 125 125 123
-0.45 1.6672 -3.05 -0.0284654 -0.99932 -0.0234354 121 122 120
-0.4 1.66705 -3.05 -0.0180349 -0.999781 -0.0105879 123 123 121
-0.75 1.66702 -3.1 0.111416 -0.992173 0.0563801 136 137 137
-0.8 1.65817 -3.1 0.165892 -0.984635 0.0545412 136 137 137
-0.7 1.66937 -3.1 0.0400492 -0.998351 0.0411269 131 131 130
-0.65 1.67021 -3.1 0.0235903 -0.999647 0.0121945 131 131 130
-0.6 1.67175 -3.1 0.029233 -0.999481 0.0135314 128 128 127
-0.55 1.6743 -3.1 -0.0218396 -0.999472 0.0240629 125 125 123
-0.5 1.66981 -3.1 -0.0328618 -0.999301 0.0178289 123 123 121
-0.45 1.67009 -3.1 -0.0350591 -0.999289 -0.0138457 125 125 123
-0.4 1.66626 -3.1 -0.0578725 -0.998172 -0.0174045 119 120 119
-0.75 1.66187 -3.15 0.1109 -0.992074 0.0590814 132 132 132
-0.8 1.6547 -3.15 0.146111 -0.987852 0.0529086 132 132 132
-0.7 1.66526 -3.15 0.0691062 -0.996307 0.0509571 128 128 128
-0.65 1.66924 -3.15 0.0463791 -0.998266 0.03626 129 129 127
-0.6 1.67131 -3.15 0.00303494 -0.99908 0.0427746 128 128 126
-0.55 1.66968 -3.15 -0.0264397 -0.997849 0.0599849 121 121 121
-0.5 1.66632 -3.15 -0.0197152 -0.999379 0.0292136 120 120 118
-0.45 1.66856 -3.15 0.00396339 -0.999627 0.0270081 121 121 119
-0.4 1.66696 -3.15 -0.0430798 -0.999066 0.003492 120 120 119
-0.75 1.66042 -3.2 0.117511 -0.992522 0.0330273 134 134 134
-0.8 1.65237 -3.2 0.158765 -0.986252 0.0458431 134 134 134
-0.7 1.66468 -3.2 0.0709705 -0.997352 0.0158815 131 132 131
-0.65 1.66798 -3.2 0.0325467 -0.999231 0.0218712 131 131 129
-0.6 1.6676 -3.2 -0.0080224 -0.998058 0.0617727 127 127 125
-0.55 1.66595 -3.2 0.00160356 -0.997235 0.0742991 121 121 119
-0.5 1.66774 -3.2 -0.00900396 -0.999956 -0.00270688 117 117 115
-0.45 1.66763 -3.2 0.00460149 -0.999966 0.00690249 121 121 119
-0.4 1.66702 -3.2 -0.0220292 -0.999719 0.0087015 122 122 120
0 1.65338 -2.4 -0.0255789 -0.999597 0.0122977 117 119 117
0.05 1.65148 -2.45 -0.0188591 -0.999797 0.00705014 117 119 117
0.05 1.65206 -2.4 -0.0143852 -0.999759 0.016574 117 119 117
0 1.65272 -2.45 -0.030779 -0.999525 0.00164876 117 119 117
0.1 1.65085 -2.45 -0.0281596 -0.998798 0.0401275 118 118 117
0.1 1.65244 -2.4 -0.00928188 -0.999452 0.031771 118 118 117
0.132227 1.65 -2.45 -0.0260798 -0.998972 0.0370829 114 116 115
0.15 1.65 -2.43531 -0.029353 -0.99907 0.0315993 114 116 115
0.15 1.65113 -2.4 -0.0334676 -0.998931 0.0318715 114 116 115
0.180316 1.65 -2.4 -0.0371025 -0.998806 0.031793 115 115 115
0.15 1.64954 -2.45 -0.0280142 -0.999085 0.0323029 110 111 111
0.2 1.64927 -2.4 -0.041188 -0.998675 0.030841 108 110 108
0.2 1.64771 -2.45 -0.0403534 -0.998649 0.0327413 108 110 108
0.25 1.64535 -2.45 -0.0403527 -0.9988 0.0277541 109 111 109
0.25 1.64675 -2.4 -0.0423403 -0.998751 0.0265256 109 111 109
0.3 1.64377 -2.45 -0.0354566 -0.999005 0.0270377 111 112 111
0.3 1.6449 -2.4 -0.0360181 -0.99906 0.0241187 111 112 111
0.35 1.64186 -2.45 -0.0506607 -0.998301 0.0287782 111 113 112
0.35 1.64329 -2.4 -0.042648 -0.998516 0.0338545 111 113 112
0.4 1.63866 -2.45 -0.0584428 -0.997632 0.0362497 109 110 109
0.4 1.64117 -2.4 -0.0423379 -0.997853 0.0499605 109 110 109
0.05 1.65137 -2.5 -0.0485652 -0.998818 -0.00193446 117 118 118
0 1.65381 -2.5 -0.0506511 -0.998486 -0.0214333 117 118 118
0.0736774 1.65 -2.5 -0.0557743 -0.998373 0.0118659 114 115 113
0.1 1.65 -2.46764 -0.0383462 -0.998159 0.0470028 114 115 113
0.1 1.64855 -2.5 -0.0435501 -0.998881 0.0184309 113 115 114
0.15 1.64849 -2.5 -0.0267196 -0.999393 0.0223478 113 115 113
0.2 1.64585 -2.5 -0.0437369 -0.998617 0.0291645 112 113 111
0.25 1.64407 -2.5 -0.0368574 -0.998836 0.031117 112 114 112
0.3 1.64225 -2.5 -0.0359077 -0.998919 0.0295218 109 109 108
0.35 1.64038 -2.5 -0.0513612 -0.9983 0.0275412 110 111 111
0.4 1.63699 -2.5 -0.0665726 -0.997472 0.0248399 108 109 108
0.05 1.65223 -2.55 -0.0522919 -0.998372 -0.0227808 115 117 116
0 1.65506 -2.55 -0.0528188 -0.998373 -0.0214679 115 117 116
0.0955115 1.65 -2.55 -0.0500471 -0.998705 -0.00914937 114 116 114
0.1 1.64978 -2.55 -0.0495046 -0.998738 -0.00847799 116 117 114
0.15 1.64727 -2.55 -0.0464974 -0.998871 0.00975468 114 116 114
0.2 1.64474 -2.55 -0.0514916 -0.998392 0.0237254 115 117 114
0.25 1.64233 -2.55 -0.0376539 -0.998752 0.0327969 114 116 114
0.3 1.64072 -2.55 -0.0343034 -0.998948 0.0304269 108 110 108
0.35 1.63899 -2.55 -0.0453705 -0.998553 0.0288706 112 112 111
0.4 1.63608 -2.55 -0.0605089 -0.99792 0.022238 105 105 104
0.05 1.6535 -2.6 -0.0570245 -0.99762 0.0387606 113 114 113
0 1.6556 -2.6 -0.0420268 -0.998205 0.0426649 113 114 113
0.0957118 1.65 -2.6 -0.0830722 -0.996047 0.0314646 115 117 115
0.1 1.64964 -2.6 -0.0793946 -0.996317 0.0323999 109 110 108
0.15 1.64713 -2.6 -0.0570317 -0.997994 0.0275031 114 116 113
0.2 1.64368 -2.6 -0.0618326 -0.997762 0.025455 114 115 114
0.25 1.64053 -2.6 -0.0427351 -0.998669 0.0288638 115 117 115
0.3 1.6393 -2.6 -0.0334961 -0.99894 0.0315656 112 114 112
0.35 1.63739 -2.6 -0.0425523 -0.998457 0.0356785 109 111 110
0.4 1.635 -2.6 -0.0503955 -0.998159 0.0337447 110 112 111
0 1.65076 -2.65 -0.029741 -0.99765 0.0617207 113 115 113
0.0261876 1.65 -2.65 -0.0287342 -0.997256 0.0682267 113 115 113
0.05 1.65 -2.64206 -0.0407073 -0.995561 0.0848585 113 115 113
0.05 1.64932 -2.65 -0.0401598 -0.995978 0.0800904 115 117 114
0.1 1.64487 -2.65 -0.0550751 -0.996593 0.0613991 116 118 116
0.15 1.64427 -2.65 -0.0328112 -0.99771 0.0591501 106 108 107
0.2 1.64178 -2.65 -0.0515477 -0.997908 0.0390065 114 116 113
0.25 1.63934 -2.65 -0.0411594 -0.998689 0.0304226 113 115 114
0.3 1.63777 -2.65 -0.0362647 -0.998982 0.0268337 113 115 114
0.35 1.63538 -2.65 -0.0456895 -0.998695 0.0228142 111 112 111
0.4 1.63296 -2.65 -0.0482439 -0.998624 0.0205729 112 112 112
0 1.65 -2.66331 -0.0290248 -0.997947 0.0570906 115 117 115
0 1.6479 -2.7 -0.0188573 -0.998246 0.056118 114 116 114
0.05 1.64702 -2.7 -0.0382512 -0.998049 0.0493436 114 116 114
0.1 1.64395 -2.7 -0.0548716 -0.998007 0.031179 113 115 113
0.15 1.64141 -2.7 -0.0390562 -0.998684 0.0332359 113 115 112
0.2 1.64001 -2.7 -0.0365668 -0.998563 0.0391825 107 108 108
0.25 1.6376 -2.7 -0.0362293 -0.99909 0.022487 112 113 112
0.3 1.63629 -2.7 -0.025987 -0.999541 0.0155799 112 114 112
0.35 1.63487 -2.7 -0.0377568 -0.999281 0.00354592 112 113 112
0.4 1.63292 -2.7 -0.0412611 -0.999141 0.00380686 108 110 109
0.05 1.64427 -2.75 -0.0283922 -0.99939 0.0203131 117 119 116
0 1.64459 -2.75 -0.0110883 -0.99969 0.0222729 117 119 116
0.1 1.64163 -2.75 -0.0345553 -0.99937 0.0081223 116 118 116
0.15 1.6409 -2.75 -0.0431696 -0.999041 -0.00738273 114 116 113
0.2 1.6377 -2.75 -0.0361297 -0.999346 0.00130743 114 116 115
0.25 1.63699 -2.75 -0.0176404 -0.999832 -0.00502856 109 111 109
0.3 1.63608 -2.75 -0.0191599 -0.999653 -0.018053 110 112 111
0.35 1.63544 -2.75 -0.033082 -0.99928 -0.018579 109 111 108
0.4 1.63281 -2.75 -0.048981 -0.998566 -0.0216039 109 110 109
0.05 1.64487 -2.8 -0.024291 -0.999565 -0.0167263 112 114 112
0 1.64614 -2.8 -0.0253783 -0.999196 -0.031022 112 114 112
0.1 1.64323 -2.8 -0.0282314 -0.999239 -0.0269169 116 118 116
0.15 1.64254 -2.8 -0.0365895 -0.998801 -0.0325189 114 116 114
0.2 1.63958 -2.8 -0.0441355 -0.998364 -0.0363439 115 117 116
0.25 1.63824 -2.8 -0.00813721 -0.999572 -0.0281145 112 113 113
0.3 1.63845 -2.8 -0.0203087 -0.998922 -0.041742 111 113 112
0.35 1.63677 -2.8 -0.0318298 -0.998987 -0.0318067 110 110 110
0.4 1.63475 -2.8 -0.0463542 -0.998393 -0.0326077 105 107 106
-0.4 1.66765 -2.4 -0.0333354 -0.999443 0.00130661 124 124 122
-0.35 1.66592 -2.45 -0.0389513 -0.998892 0.0264048 124 124 122
-0.35 1.66667 -2.4 -0.0331594 -0.99938 0.0118313 124 124 122
-0.4 1.66827 -2.45 -0.0622658 -0.998057 0.00209157 124 124 122
-0.3 1.6639 -2.45 -0.0457887 -0.998785 0.018195 123 123 121
-0.3 1.664 -2.4 -0.0474648 -0.998839 0.00821168 123 123 121
-0.25 1.6612 -2.45 -0.0513618 -0.998589 0.0135007 115 116 114
-0.25 1.66254 -2.4 -0.0357691 -0.998693 0.0365043 115 116 114
-0.2 1.6581 -2.45 -0.0514255 -0.998321 0.0266664 118 118 116
-0.2 1.6614 -2.4 -0.036797 -0.997525 0.0599163 118 118 116
-0.15 1.65614 -2.45 -0.0233866 -0.998845 0.0419641 118 120 116
-0.15 1.65825 -2.4 -0.0355322 -0.998684 0.036985 118 120 116
-0.1 1.65624 -2.45 -0.0142017 -0.99948 0.0289529 117 119 116
-0.1 1.65733 -2.4 -0.0317782 -0.999298 0.0198334 117 119 116
-0.05 1.65417 -2.45 -0.0355582 -0.999367 -0.00118159 116 117 116
-0.05 1.65488 -2.4 -0.0392148 -0.999134 0.0138949 116 117 116
0 1.65272 -2.45 -0.0291865 -0.999566 -0.00408112 114 116 113
0 1.65338 -2.4 -0.0299913 -0.999464 0.0130917 114 116 113
-0.35 1.66355 -2.5 -0.0653981 -0.997486 0.0272943 120 120 118
-0.4 1.66896 -2.5 -0.106462 -0.994316 0.00127315 120 120 118
-0.3 1.66205 -2.5 -0.0284485 -0.99877 0.0406194 122 122 120
-0.25 1.66053 -2.5 -0.0352389 -0.999149 0.0214261 121 121 119
-0.2 1.65882 -2.5 -0.0519073 -0.998647 -0.00323189 116 116 114
-0.15 1.65453 -2.5 -0.0411489 -0.998826 -0.0255713 119 120 117
-0.1 1.65388 -2.5 0.00411237 -0.99983 -0.0179891 118 119 116
-0.05 1.65503 -2.5 -0.0135196 -0.999537 -0.0272746 115 117 116
0 1.65381 -2.5 -0.0255288 -0.999426 -0.0222523 116 117 115
-0.35 1.66285 -2.55 -0.0812169 -0.996132 0.0335281 119 119 117
-0.4 1.66803 -2.55 -0.105837 -0.993767 0.0350095 119 119 117
-0.3 1.65966 -2.55 -0.0341881 -0.998568 0.0411478 119 120 118
-0.25 1.65935 -2.55 -0.0198638 -0.998858 0.043457 120 121 118
-0.2 1.65764 -2.55 -0.0155589 -0.99938 0.0315827 116 117 116
-0.15 1.65791 -2.55 -0.00740513 -0.99997 0.00215562 116 116 114
-0.1 1.65815 -2.55 0.00227554 -0.999897 -0.0141704 110 112 110
-0.05 1.65818 -2.55 -0.021457 -0.999572 -0.0198758 116 118 116
0 1.65506 -2.55 -0.0528191 -0.998229 -0.0273656 117 119 117
-0.35 1.65997 -2.6 -0.0787341 -0.996652 0.0220479 123 123 122
-0.4 1.6657 -2.6 -0.10396 -0.994245 0.0258771 123 123 122
-0.3 1.65786 -2.6 -0.0433217 -0.998766 0.0242823 121 122 121
-0.25 1.65614 -2.6 -0.0177331 -0.999049 0.0398354 122 123 121
-0.2 1.65577 -2.6 -0.0131861 -0.999164 0.0386836 120 120 118
-0.15 1.65557 -2.6 -0.00271295 -0.998692 0.0510648 115 116 115
-0.1 1.65536 -2.6 0.00489616 -0.998403 0.0562781 111 111 109
-0.05 1.65609 -2.6 -0.00292108 -0.998194 0.0600017 115 116 113
0 1.6556 -2.6 -0.022992 -0.998173 0.055879 114 116 113
-0.35 1.6607 -2.65 -0.0734614 -0.997264 -0.00820814 116 117 114
-0.4 1.66443 -2.65 -0.0704384 -0.997476 0.00893506 116 117 114
-0.3 1.65774 -2.65 -0.0545526 -0.99851 -0.00135963 120 121 120
-0.25 1.65505 -2.65 -0.0354814 -0.999266 0.0144584 119 120 117
-0.2 1.65452 -2.65 -0.0176616 -0.999409 0.0294834 114 115 112
-0.15 1.65265 -2.65 -0.0216266 -0.999294 0.0307279 116 117 116
-0.1 1.65254 -2.65 0.000295384 -0.998641 0.0521103 107 107 104
-0.05 1.65271 -2.65 -0.0240203 -0.996547 0.0794866 114 115 113
0 1.65076 -2.65 -0.0357866 -0.997418 0.0622549 114 115 112
-0.35 1.66147 -2.7 -0.0650533 -0.997876 0.00346556 118 119 117
-0.4 1.66443 -2.7 -0.065958 -0.997809 0.00522313 118 119 117
-0.3 1.6578 -2.7 -0.0581171 -0.998289 -0.00644173 117 117 115
-0.25 1.65503 -2.7 -0.0555538 -0.998304 -0.0174115 119 120 119
-0.2 1.6522 -2.7 -0.0241316 -0.999692 0.00587066 115 115 114
-0.15 1.65268 -2.7 -0.0261333 -0.99957 0.0133136 116 116 113
-0.1 1.65017 -2.7 -0.0479725 -0.998442 0.0285002 116 118 115
-0.0965423 1.65 -2.7 -0.0478752 -0.998404 0.0299441 115 116 114
-0.05 1.65 -2.67721 -0.0374234 -0.994418 0.0986547 115 116 114
0 1.65 -2.66331 -0.0299432 -0.997553 0.0631816 116 118 114
-0.05 1.64774 -2.7 -0.0348893 -0.9965 0.0759649 114 116 113
0 1.6479 -2.7 0.00308415 -0.998136 0.0609559 114 116 113
-0.35 1.66025 -2.75 -0.0681428 -0.996752 -0.04292 121 121 119
-0.4 1.66459 -2.75 -0.0944056 -0.993403 -0.0650998 121 121 119
-0.3 1.65777 -2.75 -0.0422069 -0.998558 -0.033163 120 120 118
-0.25 1.65675 -2.75 -0.0501035 -0.998344 -0.0282777 117 118 115
-0.2 1.654 -2.75 -0.045029 -0.998908 -0.0124794 116 116 114
-0.15 1.65191 -2.75 -0.0456703 -0.998954 -0.00208332 115 117 113
-0.117684 1.65 -2.75 -0.0570271 -0.998353 0.00619278 115 117 115
-0.1 1.65 -2.70663 -0.0493557 -0.998475 0.0247312 115 117 115
-0.1 1.64901 -2.75 -0.0542713 -0.998509 0.00585114 116 118 115
-0.05 1.64607 -2.75 -0.045104 -0.998981 -0.00169088 118 120 116
0 1.64459 -2.75 -0.0215007 -0.999725 0.00932848 115 117 114
-0.35 1.66583 -2.8 -0.0904692 -0.988805 -0.118658 119 119 118
-0.4 1.67184 -2.8 -0.11813 -0.98271 -0.142572 119 119 118
-0.3 1.66186 -2.8 -0.0594167 -0.994281 -0.0887406 118 118 117
-0.25 1.65911 -2.8 -0.078206 -0.995381 -0.0556891 117 117 115
-0.2 1.65311 -2.8 -0.0501577 -0.99874 0.00168066 117 117 114
-0.15 1.65244 -2.8 -0.0449351 -0.998979 -0.00462494 117 118 114
-0.108007 1.65 -2.8 -0.0552149 -0.998417 -0.0106862 118 120 117
-0.1 1.64956 -2.8 -0.0513113 -0.998626 -0.0106802 117 118 116
-0.05 1.64801 -2.8 -0.0410928 -0.998649 -0.0318099 117 118 115
0 1.64614 -2.8 -0.0335006 -0.99883 -0.0348747 116 117 115
0 1.66433 -2 -0.0135742 -0.99337 0.11416 115 116 114
0.05 1.6579 -2.05 0.00525176 -0.996978 0.0775082 115 116 114
0.05 1.66272 -2 -0.0211635 -0.996212 0.084339 115 116 114
0 1.65764 -2.05 -0.00225081 -0.996419 0.0845177 115 116 114
0.1 1.65856 -2.05 -0.0139253 -0.998547 0.0520647 115 116 114
0.1 1.66104 -2 -0.0304065 -0.998187 0.0519527 115 116 114
0.15 1.65695 -2.05 -0.0161995 -0.998959 0.0426418 115 117 116
0.15 1.65991 -2 -0.0238679 -0.998418 0.0509172 115 117 116
0.2 1.65651 -2.05 -0.0303402 -0.999342 0.0198839 115 116 115
0.2 1.65784 -2 -0.0494088 -0.998531 0.0222229 115 116 115
0.25 1.65407 -2.05 -0.0355589 -0.999366 0.00173266 115 116 115
0.25 1.65452 -2 -0.0473939 -0.99887 0.00361073 115 116 115
0.3 1.65318 -2.05 -0.019698 -0.999803 -0.0024329 112 113 112
0.3 1.65255 -2 -0.0267129 -0.999495 -0.0172198 112 113 112
0.35 1.65294 -2.05 -0.0129873 -0.999902 0.00517809 113 115 114
0.35 1.65138 -2 -0.0207837 -0.999267 -0.03216 113 115 114
0.4 1.65213 -2.05 -0.0171575 -0.99985 0.00232403 113 115 113
0.4 1.65038 -2 -0.0199942 -0.999187 -0.0350048 113 115 113
0.05 1.65533 -2.1 0.00428312 -0.999453 0.03279 115 115 114
0 1.65654 -2.1 -0.0191165 -0.99936 0.0302256 115 115 114
0.1 1.65627 -2.1 0.00167067 -0.999781 0.0208743 114 114 112
0.15 1.65521 -2.1 -0.00850316 -0.999915 0.00983913 116 116 115
0.2 1.656 -2.1 -0.00914617 -0.999884 0.0122164 110 112 111
0.25 1.65458 -2.1 -0.0282049 -0.999599 0.00271286 113 114 114
0.3 1.65364 -2.1 -0.032965 -0.999443 0.00510772 113 113 113
0.35 1.6511 -2.1 -0.0282374 -0.999445 0.0176894 113 115 114
0.4 1.65024 -2.1 -0.0549319 -0.997165 0.0514213 114 114 114
0.05 1.65392 -2.15 0.0116269 -0.999932 0.00106661 117 117 117
0 1.65409 -2.15 -0.00090382 -0.999988 0.00480597 117 117 117
0.1 1.65618 -2.15 0.0201252 -0.999734 0.0113126 117 119 117
0.15 1.65654 -2.15 -0.0104718 -0.999924 0.00648451 114 115 114
0.2 1.65557 -2.15 -0.018228 -0.999669 0.018176 112 113 112
0.25 1.65425 -2.15 -0.0317935 -0.999255 0.0218787 114 116 115
0.3 1.6525 -2.15 -0.034486 -0.998946 0.0302864 112 113 113
0.35 1.6506 -2.15 -0.0595002 -0.997497 0.0382162 113 113 113
0.359283 1.65 -2.15 -0.0639514 -0.997089 0.0415174 114 114 115
0.4 1.65 -2.10413 -0.0642177 -0.996303 0.0570683 114 114 115
0.4 1.64741 -2.15 -0.0572828 -0.99749 0.0416203 114 114 115
0.05 1.65614 -2.2 -0.000700063 -0.999876 -0.0157532 117 118 117
0 1.6558 -2.2 0.000960007 -0.99986 -0.0166937 117 118 117
0.1 1.65575 -2.2 -0.00678877 -0.999976 0.00147172 115 116 115
0.15 1.65499 -2.2 -0.0177716 -0.999591 0.0223995 118 118 117
0.2 1.65371 -2.2 -0.0261412 -0.999207 0.0300259 114 115 113
0.25 1.6525 -2.2 -0.0333425 -0.998797 0.0359581 113 113 113
0.3 1.6504 -2.2 -0.0342466 -0.999004 0.0285899 111 113 112
0.311771 1.65 -2.2 -0.0338103 -0.999011 0.0288674 114 114 115
0.35 1.65 -2.16591 -0.0536576 -0.997855 0.0374905 114 114 115
0.35 1.64871 -2.2 -0.0371669 -0.998898 0.0286745 114 114 114
0.4 1.64702 -2.2 -0.03368 -0.999322 0.0148538 115 115 114
0.05 1.65552 -2.25 -0.00728205 -0.999956 0.00588823 113 115 114
0 1.65635 -2.25 -0.013586 -0.999906 -0.00210475 113 115 114
0.1 1.65556 -2.25 -0.0153962 -0.999809 0.012005 116 116 116
0.15 1.65404 -2.25 -0.0231975 -0.999663 0.0116124 114 116 114
0.2 1.65268 -2.25 -0.0325146 -0.999469 0.00218458 116 116 116
0.25 1.65068 -2.25 -0.0339041 -0.999424 0.00111952 108 108 108
0.271468 1.65 -2.25 -0.0325112 -0.999465 0.00354992 110 112 111
0.3 1.65 -2.21535 -0.0328806 -0.999126 0.0257897 110 112 111
0.3 1.64912 -2.25 -0.032542 -0.999388 0.0128707 116 116 116
0.35 1.64765 -2.25 -0.0340622 -0.999204 0.0207847 114 114 113
0.4 1.64593 -2.25 -0.0342331 -0.999039 0.0273594 107 109 108
0.05 1.65549 -2.3 -0.0124419 -0.999828 0.0137336 111 111 111
0 1.6557 -2.3 -0.00266788 -0.999799 0.0198671 111 111 111
0.1 1.65462 -2.3 -0.0174362 -0.999707 0.0167804 114 114 115
0.15 1.65327 -2.3 -0.016446 -0.999765 0.0141386 116 116 116
0.2 1.65338 -2.3 -0.0189729 -0.999726 0.0137274 113 113 113
0.25 1.65174 -2.3 -0.0409335 -0.999043 0.0154054 108 110 109
0.289129 1.65 -2.3 -0.0459347 -0.998891 0.0103578 108 109 108
0.3 1.6495 -2.3 -0.0448417 -0.998961 0.00808916 111 111 110
0.35 1.64684 -2.3 -0.0498964 -0.998704 0.00998387 114 114 113
0.4 1.64427 -2.3 -0.0471791 -0.998704 0.0190764 113 113 113
0.05 1.65431 -2.35 -0.00563509 -0.999477 0.0318387 117 118 116
0 1.65422 -2.35 -0.00529765 -0.999529 0.0302294 117 118 116
0.1 1.65341 -2.35 -0.0149724 -0.999599 0.0240247 117 118 119
0.15 1.65304 -2.35 -0.0197546 -0.99952 0.0238777 111 113 112
0.2 1.65168 -2.35 -0.0348715 -0.998581 0.040255 116 116 115
0.237318 1.65 -2.35 -0.0448925 -0.997843 0.0478871 111 112 112
0.25 1.65 -2.33809 -0.045138 -0.99785 0.0475244 111 112 112
0.25 1.64943 -2.35 -0.0440344 -0.997875 0.0480327 116 116 115
0.3 1.6483 -2.35 -0.0293988 -0.998546 0.0451756 107 109 108
0.35 1.64642 -2.35 -0.0471622 -0.998252 0.0356184 108 108 108
0.4 1.64359 -2.35 -0.0551824 -0.998035 0.0296866 111 112 110
0.05 1.65206 -2.4 -0.00229492 -0.999277 0.0379398 114 116 113
0 1.65338 -2.4 -0.0263728 -0.99951 0.0168789 114 116 113
0.1 1.65244 -2.4 -0.0157076 -0.999546 0.0257164 117 118 118
0.15 1.65113 -2.4 -0.0260683 -0.99896 0.0374164 114 115 114
0.180316 1.65 -2.4 -0.0370998 -0.998161 0.047942 117 117 117
0.2 1.65 -2.38477 -0.0395299 -0.998066 0.0479675 117 117 117
0.2 1.64927 -2.4 -0.0389197 -0.998079 0.0481999 114 114 113
0.25 1.64675 -2.4 -0.0435808 -0.997614 0.0535448 114 115 114
0.3 1.6449 -2.4 -0.0309448 -0.997456 0.0642168 109 111 110
0.35 1.64329 -2.4 -0.0385707 -0.997218 0.0637805 112 112 112
0.4 1.64117 -2.4 -0.0493549 -0.997243 0.0554099 111 111 111
-0.8 1.67341 -2.4 -0.0246897 -0.999683 0.00490771 136 137 136
-0.75 1.67193 -2.45 0.0318327 -0.99949 0.00244999 136 137 136
-0.75 1.67068 -2.4 -0.00577073 -0.999543 -0.0296612 136 137 136
-0.8 1.67167 -2.45 -0.00739836 -0.999711 0.022889 136 137 136
-0.7 1.67455 -2.45 -0.000847327 -0.999237 -0.0390597 132 133 132
-0.7 1.67237 -2.4 0.00656445 -0.999395 -0.0341614 132 133 132
-0.65 1.67257 -2.45 -0.0209461 -0.999641 -0.0167263 128 128 128
-0.65 1.6723 -2.4 -0.0125899 -0.999894 -0.00729263 128 128 128
-0.6 1.67156 -2.45 -0.00867352 -0.99965 -0.0249858 129 129 129
-0.6 1.67093 -2.4 -0.0285715 -0.99908 -0.0319698 129 129 129
-0.55 1.67201 -2.45 -0.0364279 -0.998149 -0.0487011 126 127 125
-0.55 1.66747 -2.4 -0.0460621 -0.996451 -0.0704539 126 127 125
-0.5 1.66884 -2.45 -0.0550243 -0.998211 -0.0233734 123 123 121
-0.5 1.66828 -2.4 -0.0128856 -0.999904 -0.00519888 123 123 121
-0.45 1.66615 -2.45 0.00188447 -0.999946 0.0102141 121 121 119
-0.45 1.66678 -2.4 -7.00151e-05 -0.99998 0.00637204 121 121 119
-0.4 1.66827 -2.45 0.0361985 -0.999321 -0.00684238 121 121 119
-0.4 1.66765 -2.4 0.0173791 -0.999771 -0.0124712 121 121 119
-0.75 1.67013 -2.5 0.0495438 -0.997688 0.0465145 137 138 138
-0.8 1.67238 -2.5 -0.0534737 -0.998426 0.0169021 137 138 138
-0.7 1.677 -2.5 0.0295098 -0.999432 0.0162804 133 134 133
-0.65 1.67307 -2.5 -0.0297174 -0.999495 -0.0112771 128 128 128
-0.6 1.67374 -2.5 -0.00250934 -0.999927 -0.0118595 126 126 126
-0.55 1.67331 -2.5 -0.0278108 -0.999543 -0.0118429 124 125 122
-0.5 1.67028 -2.5 -0.0856013 -0.996207 -0.0155969 123 123 122
-0.45 1.665 -2.5 -0.0221217 -0.999622 0.0163284 122 122 120
-0.4 1.66896 -2.5 0.0667597 -0.997739 0.00772742 121 121 119
-0.75 1.66687 -2.55 0.0219393 -0.998683 0.0463786 139 139 139
-0.8 1.67083 -2.55 -0.0731417 -0.996619 0.037431 139 139 139
-0.7 1.67282 -2.55 0.072944 -0.995664 0.0577231 128 129 129
-0.65 1.67343 -2.55 -0.0101124 -0.999868 0.0126961 131 132 131
-0.6 1.67324 -2.55 -0.00802099 -0.999808 0.0179057 125 125 124
-0.55 1.67252 -2.55 -0.0184754 -0.999507 0.0253874 125 125 124
-0.5 1.67132 -2.55 -0.0809152 -0.996692 0.00762533 124 124 123
-0.45 1.66433 -2.55 -0.0339494 -0.999395 0.00755333 124 124 123
-0.4 1.66803 -2.55 0.0750576 -0.996692 0.0311623 121 121 119
-0.75 1.66524 -2.6 0.0160299 -0.999606 0.0230556 136 136 136
-0.8 1.66804 -2.6 -0.0466739 -0.998252 0.0362686 136 136 136
-0.7 1.67041 -2.6 0.0771756 -0.996041 0.0441192 131 132 132
-0.65 1.67324 -2.6 0.0129204 -0.999187 0.0381763 128 128 127
-0.6 1.67184 -2.6 -0.0204963 -0.999422 0.0271321 124 124 122
-0.55 1.6707 -2.6 -0.0207916 -0.99944 0.0262007 120 120 118
-0.5 1.6695 -2.6 -0.0605449 -0.997948 0.0208338 124 124 122
-0.45 1.66444 -2.6 -0.0462231 -0.998919 0.00491092 121 121 120
-0.4 1.6657 -2.6 0.0374599 -0.999013 0.0238677 112 113 110
-0.75 1.66531 -2.65 0.0191207 -0.999797 -0.00643091 137 138 138
-0.8 1.66628 -2.65 -0.0281666 -0.999603 -0.00112415 137 138 138
-0.7 1.66863 -2.65 0.0459087 -0.998935 0.00468907 130 130 130
-0.65 1.66973 -2.65 0.0216893 -0.999391 0.0273301 125 125 125
-0.6 1.67004 -2.65 -0.00879052 -0.99988 0.0127419 126 126 124
-0.55 1.66964 -2.65 -0.0198039 -0.999563 0.0219637 122 122 121
-0.5 1.66905 -2.65 -0.0448995 -0.998413 0.0339908 124 124 123
-0.45 1.6647 -2.65 -0.0451955 -0.998954 0.00700337 117 117 116
-0.4 1.66443 -2.65 0.00218685 -0.999985 0.00504705 122 122 122
-0.75 1.66631 -2.7 0.00830655 -0.999739 -0.0212967 138 138 138
-0.8 1.66902 -2.7 -0.0594386 -0.997307 -0.0429639 138 138 138
-0.7 1.66976 -2.7 0.0331084 -0.999428 -0.00695856 131 132 132
-0.65 1.66974 -2.7 0.0148943 -0.999863 0.00717945 129 129 128
-0.6 1.67135 -2.7 -0.00102174 -0.999975 0.00699529 120 120 119
-0.55 1.6695 -2.7 -0.0532913 -0.998579 0.000875612 125 125 124
-0.5 1.66567 -2.7 -0.0463755 -0.9986 0.0254371 122 122 120
-0.45 1.66365 -2.7 -0.0207203 -0.999761 0.00695502 123 123 122
-0.4 1.66443 -2.7 0.0103041 -0.99994 0.00364258 119 119 117
-0.75 1.66735 -2.75 -0.00753377 -0.99995 0.00661418 138 138 138
-0.8 1.67113 -2.75 -0.0680036 -0.997606 0.0125599 138 138 138
-0.7 1.66943 -2.75 0.013955 -0.999879 0.00681421 134 134 134
-0.65 1.66911 -2.75 0.00474509 -0.999615 0.0273373 130 131 130
-0.6 1.6692 -2.75 0.00216542 -0.99973 0.0231213 126 126 125
-0.55 1.66921 -2.75 -0.0343932 -0.99934 0.0117016 122 122 121
-0.5 1.6653 -2.75 -0.0298161 -0.998999 -0.0333352 121 121 120
-0.45 1.66484 -2.75 -0.0123242 -0.996427 -0.0835509 120 120 118
-0.4 1.66459 -2.75 0.00013999 -0.996921 -0.0784125 122 122 120
-0.75 1.66471 -2.8 0.0170214 -0.998043 0.0601646 138 138 138
-0.8 1.66699 -2.8 -0.0454712 -0.995564 0.0823714 138 138 138
-0.7 1.66945 -2.8 0.00244993 -0.999914 0.0128646 137 137 137
-0.65 1.66629 -2.8 0.00886838 -0.999072 0.0421479 128 128 127
-0.6 1.66892 -2.8 0.00318833 -0.999828 0.0182555 125 125 124
-0.55 1.66788 -2.8 -0.00764339 -0.999745 0.0212434 125 125 125
-0.5 1.66763 -2.8 0.0288788 -0.999184 -0.028225 123 123 122
-0.45 1.67264 -2.8 0.0148238 -0.991749 -0.127338 122 122 121
-0.4 1.67184 -2.8 -0.0103971 -0.988808 -0.148832 121 121 119
-0.4 1.6682 -2 0.003022 -0.999128 0.0416503 119 119 117
-0.35 1.66627 -2.05 -0.00696712 -0.999466 0.031926 119 119 117
-0.35 1.66712 -2 -0.0290435 -0.999419 0.0178367 119 119 117
-0.4 1.66488 -2.05 0.0185615 -0.998788 0.0455873 119 119 117
-0.3 1.66436 -2.05 -0.0440738 -0.998931 0.0139685 121 121 119
-0.3 1.66538 -2 -0.0409492 -0.998919 0.0220018 121 121 119
-0.25 1.66183 -2.05 -0.0319264 -0.999363 0.0159695 120 120 118
-0.25 1.6632 -2 -0.0385948 -0.999065 0.0194854 120 120 118
-0.2 1.66093 -2.05 -0.0246257 -0.999675 0.0065429 121 122 119
-0.2 1.66074 -2 -0.037575 -0.999233 -0.0110385 121 122 119
-0.15 1.66035 -2.05 -0.0355681 -0.999307 0.0110031 118 118 116
-0.15 1.65871 -2 -0.0374759 -0.998979 -0.0252391 118 118 116
-0.1 1.65788 -2.05 -0.00600476 -0.999754 0.0213655 117 119 116
-0.1 1.65772 -2 0.0391672 -0.998689 0.0329501 117 119 116
-0.05 1.6592 -2.05 0.0185187 -0.997238 0.0719221 116 117 114
-0.05 1.66642 -2 0.0665901 -0.987912 0.139983 116 117 114
0 1.65764 -2.05 -0.03371 -0.996261 0.0795511 116 116 115
0 1.66433 -2 -0.0414752 -0.990319 0.132468 116 116 115
-0.35 1.66411 -2.1 -0.00385631 -0.99999 0.00211126 118 118 117
