ply
format ascii 1.0
comment Generated by the ZED SDK.
element vertex 787
property float32 x
property float32 y
property float32 z
property float32 nx
property float32 ny
property float32 nz
property uchar red
property uchar green
property uchar blue
end_header
0.68 -0.92 -1.70155 0.0321007 0.816425 0.576559 135 136 131
0.68 -0.912964 -1.72 -0.0435813 0.921594 0.3857 135 136 131
0.7 -0.92 -1.71806 0.330914 0.854285 0.400865 135 136 131
0.64 -0.9 -1.73935 0.131337 0.923917 0.359344 136 137 132
0.641778 -0.9 -1.74 0.13299 0.920405 0.367653 136 137 132
0.64 -0.899748 -1.74 0.13088 0.924196 0.358792 136 137 132
0.66 -0.90315 -1.74 0.142208 0.895951 0.420771 135 138 132
0.68 -0.906056 -1.74 0.113899 0.914973 0.387106 135 137 132
0.66 -0.9 -1.74682 0.145388 0.899904 0.41114 134 137 131
0.66 -0.894068 -1.76 0.130141 0.909301 0.395265 134 137 131
0.64 -0.892218 -1.76 0.0862372 0.932379 0.351045 134 137 131
0.68 -0.9 -1.75459 0.172238 0.87973 0.443181 136 138 133
0.68 -0.897078 -1.76 0.173585 0.872516 0.45671 136 138 133
0.5 -1.10889 -1.62 0.0409542 0.998956 0.0202268 116 116 118
0.48 -1.10826 -1.6 0.0463903 0.998816 0.0146586 116 116 118
0.5 -1.10992 -1.6 0.0671715 0.99676 0.0442411 116 116 118
0.48 -1.10869 -1.62 0.0116635 0.999868 -0.0113359 116 116 118
0.52 -1.11021 -1.62 0.0549045 0.997926 0.0336081 107 108 109
0.52 -1.11067 -1.6 0.0344744 0.999274 0.016246 107 108 109
0.54 -1.11111 -1.62 -0.00135916 0.999883 0.0152042 109 109 113
0.54 -1.11103 -1.6 0.00700827 0.999927 0.00984047 109 109 113
0.56 -1.11047 -1.62 0.0255377 0.99845 0.0494577 121 124 126
0.56 -1.11152 -1.6 0.0537064 0.996964 0.0563767 121 124 126
0.58 -1.11197 -1.62 0.0721603 0.994861 0.0710237 125 126 128
0.58 -1.11333 -1.6 0.0676329 0.996052 0.0574981 125 126 128
0.6 -1.11329 -1.62 0.0331993 0.998472 0.0441711 124 124 126
0.6 -1.11384 -1.6 -0.00779576 0.999859 0.0148978 124 124 126
0.62 -1.11297 -1.62 0.00166231 0.999775 -0.0211486 122 122 124
0.62 -1.11253 -1.6 -0.027734 0.999103 -0.0319919 122 122 124
0.64 -1.11356 -1.62 0.0197344 0.998985 -0.0404909 107 108 110
0.64 -1.11233 -1.6 -0.00997028 0.998051 -0.0616059 107 108 110
0.5 -1.10898 -1.64 0.0171732 0.999852 0.000362757 100 100 101
0.48 -1.10864 -1.64 0.0165751 0.999858 0.00296335 100 100 101
0.52 -1.10934 -1.64 0.0474992 0.998706 0.0181743 106 106 108
0.54 -1.11073 -1.64 0.000369841 0.999819 0.019016 119 119 120
0.56 -1.10937 -1.64 -0.00987996 0.99957 0.0276157 121 122 124
0.58 -1.1104 -1.64 0.0571516 0.99678 0.0562374 124 124 126
0.6 -1.11172 -1.64 0.0761915 0.995528 0.0558453 119 120 124
0.58 -1.1104 -1.64 0.070233 0.995865 0.0576172 119 120 124
0.62 -1.11358 -1.64 0.0607595 0.998048 0.0144364 113 115 118
0.64 -1.11435 -1.64 0.0362438 0.998945 -0.0282031 115 115 118
0.5 -1.1089 -1.66 0.017963 0.999837 -0.00186673 108 109 111
0.48 -1.1086 -1.66 0.019664 0.999806 0.00143507 108 109 111
0.52 -1.10933 -1.66 0.0369756 0.999315 -0.00177022 108 109 111
0.54 -1.11037 -1.66 0.0059811 0.999981 0.00118328 116 116 117
0.56 -1.10943 -1.66 -0.0295791 0.999556 -0.00359174 117 117 120
0.58 -1.10948 -1.66 0.0452709 0.998522 0.0300771 119 121 123
0.6 -1.11116 -1.66 0.0739283 0.996387 0.0418079 122 122 124
0.62 -1.11257 -1.66 0.101914 0.993947 0.0410327 112 112 116
0.64 -1.11478 -1.66 0.0919981 0.995757 -0.00192599 119 119 122
0.62 -1.01683 -1.68 -0.264476 0.434929 0.860749 20 21 23
0.614888 -1.02 -1.68 -0.279271 0.530479 0.800375 20 21 23
0.62 -1.02 -1.67856 -0.247868 0.418729 0.873629 20 21 23
0.64 -1.02 -1.66813 -0.418821 0.424267 0.802861 20 20 24
0.64 -1.00532 -1.68 -0.3621 0.565677 0.740873 20 20 24
0.6 -1.0241 -1.68 -0.431119 0.718409 0.545917 21 20 25
0.591223 -1.04 -1.68 -0.64575 -0.467164 0.603958 21 20 25
0.6 -1.04 -1.67062 -0.535416 -0.463624 0.705962 21 20 25
0.62 -1.04 -1.66134 -0.295449 -0.28281 0.91254 20 19 24
0.64 -1.04 -1.66253 -0.0811727 -0.0170654 0.996554 20 20 24
0.6 -1.04413 -1.68 -0.319263 -0.876343 0.360686 97 96 100
0.62 -1.04297 -1.68 -0.303408 -0.931566 0.200323 64 63 68
0.634348 -1.06 -1.68 -0.563773 -0.494644 0.661428 26 25 31
0.64 -1.06 -1.67503 -0.559026 -0.512341 0.651917 26 25 31
0.64 -1.06653 -1.68 -0.466217 -0.642446 0.608199 92 91 95
0.5 -1.10907 -1.68 0.0206734 0.999779 -0.00381299 110 111 113
0.48 -1.1084 -1.68 0.0334654 0.99939 0.0100015 110 111 113
0.52 -1.10941 -1.68 0.0380912 0.999261 -0.00513699 109 109 112
0.54 -1.11055 -1.68 0.0253302 0.999551 -0.016034 111 112 113
0.56 -1.10981 -1.68 -0.0385403 0.999079 -0.0188775 112 113 115
0.58 -1.1091 -1.68 0.00608902 0.999942 0.00883891 116 117 120
0.6 -1.11017 -1.68 0.0551442 0.996991 0.054473 119 120 123
0.62 -1.11145 -1.68 0.116653 0.989281 0.0878323 115 117 120
0.64 -1.11514 -1.68 0.162707 0.982744 0.0879813 108 109 112
0.54 -1.01946 -1.7 -0.33447 0.90397 0.266399 19 19 24
0.538613 -1.02 -1.7 -0.851556 -0.126105 0.50887 19 19 24
0.54 -1.02 -1.69869 -0.689252 -0.0446641 0.723144 19 19 24
0.56 -1.02 -1.69602 -0.134434 0.846812 0.514623 20 19 24
0.56 -1.01846 -1.7 -0.109584 0.938956 0.326117 20 19 24
0.58 -1.02 -1.6873 -0.120158 0.595202 0.794542 20 19 23
0.58 -1.01519 -1.7 -0.121497 0.924494 0.361316 20 19 23
0.6 -1.02 -1.69055 -0.271302 0.81256 0.51589 20 20 23
0.6 -1.01405 -1.7 -0.13953 0.850871 0.506508 20 20 23
0.62 -1.00279 -1.7 -0.418433 0.743331 0.521894 20 20 22
0.54 -1.02032 -1.7 -0.24222 -0.955566 0.167999 54 52 56
0.553391 -1.04 -1.7 -0.504203 -0.536526 0.676697 21 20 24
0.56 -1.04 -1.69604 -0.354103 -0.542555 0.761738 21 20 24
0.58 -1.04 -1.69125 -0.320562 -0.620983 0.715276 20 19 24
0.56 -1.04449 -1.7 -0.327119 -0.700678 0.634069 94 93 97
0.58 -1.04443 -1.7 -0.248631 -0.85032 0.463831 88 88 92
0.6 -1.05981 -1.7 -0.618408 -0.294789 0.728472 47 46 51
0.600092 -1.06 -1.7 -0.623267 -0.298567 0.72277 21 20 25
0.62 -1.06 -1.69068 -0.44001 -0.539144 0.718133 21 20 25
0.62 -1.07095 -1.7 -0.266597 -0.830791 0.488582 96 95 100
0.64 -1.0716 -1.7 -0.303264 -0.828867 0.470117 83 82 87
0.5 -1.10945 -1.7 0.0554449 0.998422 0.00893864 110 110 112
0.48 -1.10751 -1.7 0.101034 0.994132 0.038656 110 110 112
0.52 -1.10999 -1.7 0.0367883 0.999293 -0.00778417 107 107 109
0.54 -1.11095 -1.7 0.00243435 0.999995 -0.00180803 109 110 112
0.56 -1.11027 -1.7 -0.0439004 0.998912 0.0157303 109 110 112
0.58 -1.10923 -1.7 -0.0316172 0.999103 0.0281514 110 111 113
0.6 -1.1091 -1.7 0.00742222 0.997766 0.0663972 114 115 118
0.62 -1.10925 -1.7 0.0541682 0.991694 0.116658 113 113 117
0.64 -1.11188 -1.7 0.14099 0.970707 0.194553 106 106 110
0.54 -1.02 -1.70488 -0.944938 -0.0148861 -0.326909 18 19 23
0.548822 -1.02 -1.72 -0.301499 0.838047 0.454727 19 19 23
0.56 -1.01656 -1.72 -0.314965 0.923847 0.217493 19 19 23
0.58 -1.00812 -1.72 -0.316148 0.86188 0.3965 20 20 22
0.6 -1.0024 -1.72 -0.165016 0.897463 0.409061 21 21 24
0.52951 -1.04 -1.72 -0.652067 -0.328226 0.68343 21 20 25
0.54 -1.04 -1.71188 -0.570757 -0.349851 0.74286 21 20 25
0.54 -1.02137 -1.72 -0.36277 0.836659 0.410366 21 20 25
0.54 -1.0462 -1.72 -0.357535 -0.814849 0.456279 94 95 97
0.56 -1.04675 -1.72 -0.287302 -0.835875 0.46773 71 70 74
0.577129 -1.06 -1.72 -0.577222 -0.468855 0.668573 24 22 28
0.58 -1.06 -1.71745 -0.585677 -0.469408 0.660786 24 22 28
0.6 -1.06 -1.70008 -0.623081 -0.299224 0.722658 21 20 25
0.58 -1.06397 -1.72 -0.572785 -0.471717 0.670373 97 97 100
0.6 -1.07271 -1.72 -0.301886 -0.829375 0.470109 96 95 99
0.62 -1.07527 -1.72 -0.429716 -0.534887 0.727488 67 66 71
0.623748 -1.08 -1.72 -0.554056 -0.452043 0.699056 26 25 30
0.64 -1.08 -1.70594 -0.573925 -0.483447 0.660976 26 25 30
0.64 -1.09774 -1.72 -0.387742 -0.789046 0.47651 93 93 96
0.5 -1.10896 -1.72 0.0782938 0.996176 0.0387873 113 113 115
0.48 -1.10666 -1.72 0.114949 0.992108 0.0500908 113 113 115
0.52 -1.10975 -1.72 0.0376386 0.998923 0.0271245 109 109 113
0.54 -1.1108 -1.72 -0.0118602 0.999045 0.0420608 110 110 112
0.56 -1.10922 -1.72 -0.0716593 0.995468 0.0625164 111 111 114
0.58 -1.10807 -1.72 -0.0559699 0.992878 0.105171 104 105 107
0.6 -1.10722 -1.72 -0.0253633 0.988258 0.150674 108 109 112
0.62 -1.1073 -1.72 -0.0170886 0.982236 0.186872 108 108 110
0.64 -1.1065 -1.72 -0.135328 0.924923 0.355251 102 102 106
0.54 -1.01671 -1.74 -0.401162 0.889025 0.22069 19 19 22
0.533098 -1.02 -1.74 -0.50739 0.833271 0.21958 19 19 22
0.54 -1.02 -1.72421 -0.395476 0.870162 0.293966 19 19 22
0.56 -1.00373 -1.74 -0.426088 0.722882 0.543958 19 20 23
0.58 -1 -1.73051 -0.384979 0.730224 0.564416 19 20 22
0.566084 -1 -1.74 -0.419557 0.701052 0.576627 19 20 22
0.5 -1.03649 -1.74 -0.435406 0.735354 0.519303 20 20 23
0.494231 -1.04 -1.74 -0.84331 -0.124844 0.522726 20 20 23
0.5 -1.04 -1.73783 -0.335781 -0.167298 0.926964 20 20 23
0.52 -1.04 -1.73089 -0.536824 -0.291765 0.791639 19 19 23
0.52 -1.02816 -1.74 -0.420647 0.784863 0.455023 19 19 23
0.5 -1.04243 -1.74 -0.318535 -0.8239 0.468748 93 93 95
0.52 -1.04521 -1.74 -0.294502 -0.832653 0.468996 88 88 92
0.54 -1.05201 -1.74 -0.450378 -0.577757 0.680703 49 48 51
0.545716 -1.06 -1.74 -0.569107 -0.483239 0.66528 21 20 24
0.56 -1.06 -1.73004 -0.465978 -0.539363 0.701393 21 20 24
0.56 -1.07216 -1.74 -0.327003 -0.79122 0.516758 90 90 93
0.58 -1.07381 -1.74 -0.347581 -0.724761 0.594903 84 84 88
0.591698 -1.08 -1.74 -0.486683 -0.57058 0.661497 52 51 56
0.6 -1.08 -1.73281 -0.470724 -0.60577 0.641453 52 51 56
0.62 -1.08 -1.72291 -0.473715 -0.480371 0.738131 22 21 26
0.6 -1.09611 -1.74 -0.532588 -0.674255 0.511595 101 101 104
0.62 -1.09956 -1.74 -0.136237 -0.958945 0.248724 93 92 96
0.62327 -1.1 -1.74 -0.476421 -0.129867 0.869573 87 86 90
0.64 -1.1 -1.72905 -0.522385 -0.280152 0.805375 87 86 90
0.5 -1.10782 -1.74 0.091144 0.992656 0.0795471 112 112 114
0.48 -1.10546 -1.74 0.107815 0.991757 0.0692391 112 112 114
0.52 -1.10923 -1.74 0.0258524 0.996566 0.0786614 109 110 112
0.54 -1.10922 -1.74 -0.0277765 0.993442 0.110912 102 102 104
0.56 -1.10791 -1.74 -0.0999568 0.988025 0.117534 106 106 109
0.58 -1.10523 -1.74 -0.120704 0.974268 0.190346 108 108 112
0.6 -1.10323 -1.74 -0.108239 0.940734 0.321408 104 105 108
0.62 -1.10148 -1.74 -0.301211 0.735378 0.607034 105 105 108
0.5 -1.04 -1.7475 -0.804281 -0.229045 -0.548334 19 18 23
0.506571 -1.04 -1.76 -0.86597 0.204765 -0.456253 19 20 22
0.52 -1.02825 -1.76 -0.517905 0.851387 -0.0831594 19 20 22
0.533895 -1.02 -1.76 -0.517607 0.855554 -0.010526 18 19 23
0.517707 -1.06 -1.76 -0.578739 -0.453863 0.677547 21 21 26
0.52 -1.06 -1.75807 -0.563684 -0.45392 0.690085 21 21 26
0.54 -1.06 -1.74535 -0.515418 -0.538311 0.666757 21 20 24
0.52 -1.06327 -1.76 -0.565239 -0.424761 0.707165 100 100 102
0.54 -1.07351 -1.76 -0.366004 -0.768945 0.524179 95 94 97
0.56 -1.07643 -1.76 -0.422908 -0.74877 0.510385 68 67 71
0.563519 -1.08 -1.76 -0.560836 -0.522827 0.641962 24 23 26
0.58 -1.08 -1.74559 -0.429696 -0.568678 0.701404 24 23 26
0.58 -1.1 -1.75782 -0.558967 0.439067 0.703403 97 97 100
0.577434 -1.1 -1.76 -0.58035 0.446285 0.681193 97 97 100
0.6 -1.1 -1.74744 -0.550894 0.186654 0.813435 96 95 99
0.62 -1.1 -1.74173 -0.41413 -0.411764 0.811756 67 66 70
0.5 -1.10585 -1.76 0.0760636 0.993187 0.0882875 109 109 111
0.48 -1.10425 -1.76 0.0799438 0.994982 0.0601714 109 109 111
0.52 -1.10693 -1.76 0.010724 0.993842 0.110289 110 110 113
0.54 -1.10611 -1.76 -0.0500134 0.988406 0.143358 105 105 108
0.56 -1.10451 -1.76 -0.134348 0.97164 0.194594 104 105 108
-1.9 -0.990749 -0.98 0.0468344 0.998469 -0.029442 115 116 115
-1.92 -0.989456 -0.96 0.0493596 0.998666 -0.0151716 115 116 115
-1.9 -0.990497 -0.96 0.0526092 0.998558 -0.0106791 115 116 115
-1.92 -0.989812 -0.98 0.044235 0.998379 -0.0358185 115 116 115
-1.88 -0.99174 -0.98 0.054264 0.998398 -0.0160133 118 119 117
-1.88 -0.99164 -0.96 0.045126 0.998757 -0.021154 118 119 117
-1.86 -0.993051 -0.98 0.0311928 0.999007 -0.0318137 117 118 117
-1.86 -0.991657 -0.96 0.000221822 0.997458 -0.0712616 117 118 117
-1.84 -0.993112 -0.98 -0.000722381 0.998085 -0.0618593 118 118 117
-1.84 -0.991579 -0.96 -0.00169425 0.997518 -0.0703862 118 118 117
-1.82 -0.992879 -0.98 0.00128421 0.997965 -0.0637441 120 121 120
-1.82 -0.991831 -0.96 0.0010847 0.997901 -0.0647481 120 121 120
-1.8 -0.993171 -0.98 0.00725429 0.99743 -0.0712796 124 125 123
-1.8 -0.991122 -0.96 0.00136544 0.996159 -0.0875471 124 125 123
-1.78 -0.993354 -0.98 0.0457895 0.997346 -0.0566118 117 119 118
-1.78 -0.992467 -0.96 0.0900027 0.99561 -0.0256888 117 119 118
-1.76 -0.994884 -0.98 0.0949553 0.995317 -0.0181137 115 115 115
-1.76 -0.995508 -0.96 0.150258 0.988167 0.0308132 115 115 115
-1.9 -0.991729 -1 0.0363698 0.99494 -0.0936587 112 113 112
-1.92 -0.990994 -1 0.0347301 0.99446 -0.099216 112 113 112
-1.88 -0.992409 -1 0.0353923 0.996338 -0.0778315 114 116 114
-1.86 -0.993056 -1 0.0413915 0.998028 -0.0471976 114 116 115
-1.84 -0.993916 -1 0.0291268 0.997412 -0.0657397 120 121 120
-1.82 -0.994394 -1 0.00419072 0.996058 -0.088602 123 125 122
-1.8 -0.99417 -1 0.00367538 0.996356 -0.0852107 124 125 123
-1.78 -0.994611 -1 0.0179982 0.9981 -0.0589221 122 123 122
-1.76 -0.995481 -1 0.0516778 0.998581 -0.0128866 117 118 117
-1.9 -0.994482 -1.02 0.0308519 0.982661 -0.182826 117 118 115
-1.92 -0.993894 -1.02 0.0261876 0.981668 -0.188791 117 118 115
-1.88 -0.995147 -1.02 0.0276798 0.980866 -0.192704 116 117 115
-1.86 -0.995575 -1.02 0.0150202 0.981451 -0.191123 115 116 115
-1.84 -0.995926 -1.02 0.0200372 0.990234 -0.137968 114 116 115
-1.82 -0.996525 -1.02 0.0177682 0.992938 -0.117296 119 120 119
-1.8 -0.996672 -1.02 0.000710485 0.989781 -0.142595 120 122 121
-1.78 -0.996308 -1.02 -0.032548 0.988141 -0.150061 121 122 121
-1.76 -0.995074 -1.02 -0.0344527 0.991959 -0.121778 123 125 123
-1.9 -0.999205 -1.04 0.0219219 0.979942 -0.198071 115 116 115
-1.92 -0.998847 -1.04 0.0211722 0.982262 -0.186314 115 116 115
-1.88 -0.999726 -1.04 0.0195606 0.981377 -0.191091 117 118 117
-1.86 -0.999997 -1.04 -0.0010244 0.978065 -0.208298 112 113 112
-1.84 -0.999655 -1.04 -0.0183903 0.974675 -0.222869 113 115 114
-1.82 -0.999151 -1.04 0.0109178 0.972699 -0.231813 115 117 116
-1.80104 -1 -1.04 0.0429407 0.985188 -0.166013 116 117 116
-1.8 -1 -1.03972 0.0412403 0.986389 -0.159175 116 117 116
-1.78 -1 -1.03838 -0.0301767 0.979124 -0.201013 117 118 117
-1.77292 -1 -1.04 -0.045014 0.979905 -0.194319 121 123 122
-1.76 -0.99943 -1.04 -0.0441596 0.98315 -0.177386 121 123 122
-1.8 -1.00005 -1.04 0.0413112 0.986321 -0.159576 124 126 124
-1.78 -1.00033 -1.04 -0.0293741 0.979573 -0.198934 111 113 112
-1.9 -1 -1.04408 0.0230852 0.981771 -0.188662 111 112 109
-1.92 -1 -1.04681 0.0225731 0.985936 -0.165594 111 112 109
-1.88 -1 -1.04143 0.0193621 0.981922 -0.188294 113 115 114
-1.86 -1 -1.04001 -0.00102278 0.978068 -0.208281 114 116 115
-1.84 -1 -1.04149 -0.0183892 0.974464 -0.223791 115 117 116
-1.82 -1 -1.04336 0.0105897 0.970515 -0.240809 114 115 113
-1.76 -1 -1.04322 -0.043502 0.983826 -0.173765 121 123 120
-1.92 -1.00218 -1.06 0.039234 0.985852 -0.16296 111 113 112
-1.9 -1.00301 -1.06 0.0309344 0.984061 -0.17512 111 113 112
-1.88 -1.00343 -1.06 0.0238489 0.984423 -0.17419 114 116 115
-1.86 -1.00399 -1.06 0.00887496 0.983084 -0.182942 115 117 116
-1.84 -1.00401 -1.06 -0.00823534 0.983709 -0.179577 116 118 117
-1.82 -1.00383 -1.06 -0.0164159 0.985357 -0.169709 119 119 117
-1.8 -1.00267 -1.06 -0.0303601 0.990416 -0.134737 120 122 121
-1.78 -1.0028 -1.06 -0.00374509 0.994263 -0.106895 120 122 121
-1.76 -1.0029 -1.06 -0.00843818 0.995912 -0.0899291 113 113 111
-1.9 -1.00635 -1.08 0.0414072 0.993106 -0.109664 113 113 112
-1.92 -1.00497 -1.08 0.0584211 0.992549 -0.106927 113 113 112
-1.88 -1.00666 -1.08 0.020907 0.993538 -0.111556 115 117 115
-1.86 -1.00749 -1.08 0.00836476 0.995576 -0.0935849 114 115 113
-1.84 -1.00698 -1.08 -0.0243001 0.995331 -0.0934124 113 115 114
-1.82 -1.00634 -1.08 -0.0243322 0.995662 -0.0898095 119 120 118
-1.8 -1.00569 -1.08 -0.0396777 0.993449 -0.107162 120 122 121
-1.78 -1.00502 -1.08 -0.0534258 0.995177 -0.0822704 117 119 118
-1.76 -1.00343 -1.08 -0.058054 0.997072 -0.0497783 120 122 121
-1.9 -1.00747 -1.1 0.0359202 0.999269 -0.0130764 108 110 108
-1.92 -1.0069 -1.1 0.0160041 0.998928 -0.0434484 108 110 108
-1.88 -1.00824 -1.1 0.0124499 0.999788 -0.0163876 109 111 109
-1.86 -1.00778 -1.1 -0.00520102 0.999777 -0.0204598 113 114 113
-1.84 -1.00762 -1.1 -0.0168491 0.999487 -0.0272452 114 116 114
-1.82 -1.00714 -1.1 -0.0200972 0.999462 -0.0259074 117 119 117
-1.8 -1.00728 -1.1 -0.0317422 0.99943 -0.0114731 122 124 123
-1.78 -1.006 -1.1 -0.0641859 0.997701 -0.0217665 115 117 116
-1.76 -1.00405 -1.1 -0.0924508 0.994449 -0.0502415 86 87 86
-1.9 -1.00679 -1.12 0.0101309 0.999717 0.0215074 108 110 108
-1.92 -1.00724 -1.12 -0.0226049 0.999597 -0.0171712 108 110 108
-1.88 -1.00713 -1.12 0.0329734 0.998193 0.0502306 112 113 112
-1.86 -1.0079 -1.12 0.00886378 0.999916 0.0094982 115 116 114
-1.84 -1.0081 -1.12 -0.00589621 0.999795 -0.0193674 119 121 120
-1.82 -1.00784 -1.12 -0.047866 0.998332 -0.0322755 109 112 110
-1.8 -1.00629 -1.12 -0.0434482 0.998658 0.0281839 82 83 83
-1.78 -1.00525 -1.12 -0.0281762 0.998791 0.0402946 90 92 90
-1.76 -1.00528 -1.12 -0.0480154 0.998776 -0.0118379 109 111 109
0 -0.604988 -2.14 -0.382112 0.307695 0.871387 145 147 142
-0.0118157 -0.62 -2.14 -0.37409 0.33616 0.864322 145 147 142
0 -0.62 -2.13509 -0.35971 0.328948 0.873156 145 147 142
-0.02 -0.64 -2.13417 -0.307612 0.426739 0.850452 143 147 140
-0.02 -0.628857 -2.14 -0.398331 0.4231 0.81383 143 147 140
-0.04 -0.64 -2.13959 -0.3344 0.626298 0.704222 143 147 140
-0.04 -0.63954 -2.14 -0.335577 0.628263 0.701907 143 147 140
0 -0.64 -2.12635 -0.337204 0.37679 0.862742 144 148 142
0 -0.493241 -2.16 -0.465262 0.340241 0.81717 146 148 143
-0.00498313 -0.5 -2.16 -0.475314 -0.00314001 0.879811 146 148 143
0 -0.5 -2.15754 -0.442194 -0.00978493 0.896866 146 148 143
0 -0.506536 -2.16 -0.457458 -0.348794 0.81797 146 148 143
0 -0.56682 -2.16 -0.346517 0.284486 0.893865 144 147 142
-0.011314 -0.58 -2.16 -0.334523 0.450309 0.827839 144 147 142
0 -0.58 -2.15538 -0.348529 0.392047 0.851368 144 147 142
-0.02 -0.584907 -2.16 -0.366591 0.536021 0.760455 144 148 140
-0.0344759 -0.6 -2.16 -0.494922 0.337912 0.800542 144 148 140
-0.02 -0.6 -2.15016 -0.433743 0.409531 0.80259 144 148 140
0 -0.6 -2.14181 -0.372869 0.363225 0.853836 145 148 143
-0.04 -0.610104 -2.16 -0.537048 0.293618 0.790802 143 146 140
-0.04 -0.62 -2.15584 -0.494685 0.373832 0.784561 143 146 140
-0.02 -0.62 -2.14349 -0.408312 0.322482 0.853983 143 146 140
-0.04 -0.486267 -2.18 -0.294511 0.115024 0.948701 145 147 142
-0.0483561 -0.5 -2.18 -0.196188 0.180837 0.963747 145 147 142
-0.04 -0.5 -2.17831 -0.219045 0.115185 0.968892 145 147 142
-0.0381161 -0.48 -2.18 -0.36766 0.110794 0.923337 145 147 142
-0.02 -0.48 -2.17334 -0.329868 0.114573 0.937048 145 147 142
-0.02 -0.5 -2.17088 -0.401894 0.0052816 0.915671 145 147 142
0 -0.48 -2.16668 -0.462575 0.286396 0.839048 145 147 142
-0.06 -0.510195 -2.18 -0.298612 0.217111 0.929351 146 148 143
-0.0652983 -0.52 -2.18 -0.38205 0.250926 0.889423 146 148 143
-0.06 -0.52 -2.17774 -0.28835 0.268206 0.919195 146 148 143
-0.04 -0.52 -2.177 -0.130814 0.0113723 0.991342 146 148 142
-0.02 -0.52 -2.17291 -0.262902 -0.00206546 0.96482 145 147 142
0 -0.52 -2.16733 -0.372719 -0.113593 0.920965 146 148 143
-0.08 -0.527852 -2.18 -0.320898 0.600809 0.732157 158 161 154
-0.08 -0.54 -2.16992 -0.129684 0.469465 0.873375 158 161 154
-0.06 -0.54 -2.17298 0.175646 0.11382 0.977851 158 161 154
-0.04 -0.54 -2.17836 -0.0638863 0.0251103 0.997641 140 142 137
-0.02 -0.54 -2.17217 -0.307885 0.0606112 0.949491 145 148 142
0 -0.54 -2.16496 -0.319275 0.106922 0.941611 145 148 142
-0.04 -0.56 -2.17791 -0.153139 0.114385 0.981562 137 141 133
-0.06 -0.56 -2.17851 -0.269163 -0.136817 0.953327 137 141 133
-0.02 -0.56 -2.16996 -0.35331 0.183505 0.917332 144 148 142
0 -0.56 -2.16202 -0.344906 0.225485 0.911151 145 148 143
-0.0545258 -0.58 -2.18 -0.463146 -0.19457 0.864661 121 124 116
-0.04 -0.58 -2.17169 -0.337376 0.136004 0.931493 121 124 116
-0.06 -0.56697 -2.18 -0.473124 -0.189614 0.860349 121 124 116
-0.02 -0.58 -2.16356 -0.358876 0.491243 0.793655 144 147 140
-0.04 -0.6 -2.16328 -0.478027 0.313846 0.82036 145 148 141
-0.08 -0.48 -2.19871 -0.462393 0.180037 0.868204 145 147 142
-0.0824408 -0.48 -2.2 -0.462604 0.187844 0.866436 145 147 142
-0.08 -0.5 -2.19464 -0.463989 0.218195 0.858548 145 147 142
-0.0913948 -0.5 -2.2 -0.423237 0.189483 0.885983 145 147 142
-0.06 -0.5 -2.18241 -0.28927 0.220401 0.931529 145 147 142
-0.06 -0.48 -2.18822 -0.392755 0.256328 0.883198 145 147 142
-0.04 -0.48 -2.18075 -0.359944 0.113318 0.926067 145 147 142
-0.08 -0.52 -2.1864 -0.364263 0.495192 0.788732 145 147 142
-0.06 -0.58 -2.18286 -0.454493 -0.190935 0.870046 120 123 115
-0.1 -0.5 -2.20416 -0.465856 0.231465 0.85405 145 147 142
-0.1 -0.48 -2.21232 -0.544701 0.316811 0.776487 145 147 142
-1.6 -1.01795 -1.28 0.166706 0.985094 0.0424166 113 113 111
-1.58786 -1.02 -1.28 0.197416 0.980281 -0.0087155 113 113 111
-1.6 -1.01708 -1.3 0.202492 0.978164 0.0468216 113 113 111
-1.58729 -1.02 -1.3 0.28022 0.957003 0.0749811 113 113 111
-1.58 -1.0224 -1.3 0.284667 0.955456 0.0778961 118 120 117
-1.58 -1.02153 -1.28 0.185673 0.981265 -0.0514298 118 120 117
-1.56 -1.02656 -1.3 0.147358 0.989048 -0.00834937 118 119 117
-1.56 -1.02442 -1.28 0.132843 0.986491 -0.0958538 118 119 117
-1.54 -1.02865 -1.3 0.0919555 0.995698 -0.0113935 119 119 117
-1.54 -1.02732 -1.28 0.104191 0.992582 -0.062656 119 119 117
-1.52 -1.02982 -1.3 0.063308 0.997818 -0.0187205 117 117 115
-1.52 -1.02877 -1.28 0.0664505 0.99627 -0.0550577 117 117 115
-1.5 -1.03115 -1.3 0.0434892 0.998854 -0.0199761 118 120 117
-1.5 -1.02987 -1.28 0.0432528 0.997339 -0.0586811 118 120 117
-1.48 -1.03158 -1.3 0.0430151 0.998943 -0.0162277 112 114 111
-1.48 -1.03071 -1.28 0.0503374 0.997744 -0.0444195 112 114 111
-1.46 -1.03279 -1.3 0.0573651 0.998223 -0.0161055 111 111 109
-1.46 -1.03187 -1.28 0.0578142 0.997453 -0.0417685 111 111 109
-1.44 -1.03377 -1.3 0.053374 0.998351 -0.0211135 111 111 109
-1.44 -1.0332 -1.28 0.0666531 0.997371 -0.028428 111 111 109
-1.58 -1.02 -1.31477 0.240446 0.96256 0.125154 104 106 104
-1.58 -1.01939 -1.32 0.212592 0.971289 0.106783 104 106 104
-1.6 -1.01623 -1.32 0.105064 0.994346 0.0154042 104 106 104
-1.57726 -1.02 -1.32 0.221708 0.968656 0.11203 116 117 115
-1.56 -1.02503 -1.32 0.201296 0.972754 0.115017 113 113 113
-1.54 -1.02734 -1.32 0.114409 0.991315 0.0648541 116 117 115
-1.52 -1.02948 -1.32 0.0791658 0.996478 0.0276562 119 120 118
-1.5 -1.0307 -1.32 0.051089 0.998611 0.0129089 118 119 116
-1.48 -1.03128 -1.32 0.0444714 0.998974 -0.00854905 113 114 112
-1.46 -1.0324 -1.32 0.061438 0.998033 -0.0124653 114 114 112
-1.44 -1.03387 -1.32 0.0671531 0.99772 -0.00676779 114 114 112
-1.58 -1.01753 -1.34 0.0984853 0.993283 -0.0607487 121 121 119
-1.6 -1.01854 -1.34 -0.0836478 0.979053 -0.18563 121 121 119
-1.56557 -1.02 -1.34 0.27575 0.960617 -0.0342948 106 107 105
-1.56 -1.02187 -1.34 0.256077 0.966285 0.0267893 104 105 103
-1.54 -1.02588 -1.34 0.163596 0.984344 0.0655987 116 117 116
-1.52 -1.02888 -1.34 0.112747 0.993242 0.0275434 120 121 119
-1.5 -1.03038 -1.34 0.0756376 0.997118 -0.00590173 118 120 118
-1.48 -1.03185 -1.34 0.0728905 0.996657 -0.0369031 118 119 116
-1.46 -1.03342 -1.34 0.0675683 0.995366 -0.0684236 114 114 112
-1.44 -1.03429 -1.34 0.0505788 0.9944 -0.0927957 113 113 111
-1.58 -1.02 -1.35572 0.0323122 0.969512 -0.242906 121 122 120
-1.6 -1.02 -1.34619 -0.113749 0.964398 -0.238742 121 122 120
-1.6 -1.02376 -1.36 -0.0899302 0.977023 -0.193233 123 124 122
-1.58 -1.02116 -1.36 -0.0147123 0.975271 -0.220521 123 124 122
-1.56 -1.02077 -1.36 0.0823445 0.996541 0.0111954 100 101 99
-1.54 -1.02502 -1.36 0.187661 0.981533 0.0371037 117 118 116
-1.52 -1.02833 -1.36 0.144757 0.989327 0.0166381 117 117 116
-1.5 -1.03087 -1.36 0.108987 0.99396 -0.0128836 116 118 116
-1.48 -1.03288 -1.36 0.102586 0.993799 -0.0428871 116 116 114
-1.46 -1.03487 -1.36 0.109623 0.991084 -0.0757337 116 116 114
-1.44 -1.03733 -1.36 0.101866 0.989307 -0.104378 116 118 115
-1.58 -1.02481 -1.38 -0.0544196 0.991077 -0.121672 110 110 108
-1.6 -1.02372 -1.38 0.0469773 0.997726 -0.048335 110 110 108
-1.56 -1.02186 -1.38 -0.0133122 0.992736 -0.119575 117 118 116
-1.54 -1.02427 -1.38 0.16273 0.986556 -0.0150502 105 106 104
-1.52 -1.02821 -1.38 0.167813 0.985805 -0.00522328 113 114 112
-1.5 -1.03106 -1.38 0.134792 0.99026 -0.0348694 113 114 113
-1.48 -1.03345 -1.38 0.129846 0.989576 -0.0622879 116 118 115
-1.46 -1.0365 -1.38 0.13798 0.987366 -0.0779159 118 120 118
-1.44 -1.03931 -1.38 0.159287 0.98084 -0.112163 121 123 120
-1.58 -1.02651 -1.4 0.00754067 0.998221 -0.05915 104 104 102
-1.6 -1.02601 -1.4 0.017468 0.99775 -0.0647267 104 104 102
-1.56 -1.02567 -1.4 -0.0368077 0.990096 -0.135484 114 114 112
-1.54 -1.02536 -1.4 0.0739187 0.992272 -0.0996643 103 103 103
-1.52 -1.02852 -1.4 0.171146 0.984824 -0.0288331 106 106 104
-1.5 -1.03209 -1.4 0.170617 0.984529 -0.0399073 116 117 115
-1.48 -1.03559 -1.4 0.140736 0.988077 -0.0624247 123 123 121
-1.46 -1.03829 -1.4 0.150508 0.988159 -0.0298195 120 121 119
-1.45095 -1.04 -1.4 0.183336 0.983024 -0.00720591 119 121 118
-1.44 -1.04 -1.38521 0.179684 0.974967 -0.130969 119 121 118
-1.44 -1.04202 -1.4 0.181004 0.983455 -0.00730014 118 120 118
-1.58 -1.02654 -1.42 0.0250701 0.999036 -0.0360486 114 116 114
-1.6 -1.02661 -1.42 -4.8397e-05 0.998813 -0.0487054 114 116 114
-1.56 -1.0277 -1.42 0.0400718 0.997025 -0.0658516 95 96 94
-1.54 -1.02813 -1.42 0.0249779 0.992034 -0.123469 118 120 119
-1.52 -1.02916 -1.42 0.123531 0.990328 -0.0631773 109 110 108
-1.5 -1.03282 -1.42 0.193866 0.97974 -0.0502577 117 118 116
-1.48 -1.03647 -1.42 0.117139 0.989538 -0.0842229 117 119 116
-1.46 -1.03831 -1.42 0.0505906 0.998671 0.00981775 119 121 118
-1.44 -1.04 -1.41566 0.17634 0.97658 0.123274 119 120 119
-1.44 -1.03946 -1.42 0.127684 0.983525 0.127966 119 120 119
-1.58 -1.02804 -1.44 0.00821921 0.997438 -0.0710644 121 122 120
-1.6 -1.02782 -1.44 0.0106729 0.998116 -0.0604146 121 122 120
-1.56 -1.0283 -1.44 0.0796789 0.995981 -0.0409134 112 114 111
-1.54 -1.0308 -1.44 0.0346963 0.993658 -0.106959 102 103 101
-1.52 -1.03074 -1.44 0.0815984 0.992432 -0.0917609 117 119 118
-1.5 -1.03356 -1.44 0.227332 0.972729 -0.0460223 109 111 109
-1.48 -1.03975 -1.44 0.0919845 0.986905 -0.132505 114 116 115
-1.46 -1.03885 -1.44 -0.075285 0.995277 -0.0612821 118 120 118
-1.44 -1.03531 -1.44 -0.0601917 0.994214 0.0889654 116 118 117
-1.42 -1.03255 -1.14 0.0329817 0.997686 -0.0594565 123 124 123
-1.44 -1.03008 -1.12 0.0409662 0.9958 -0.0818736 123 124 123
-1.42 -1.03095 -1.12 0.0387316 0.996903 -0.0684473 123 124 123
-1.44 -1.03177 -1.14 0.0476082 0.997847 -0.0451193 123 124 123
-1.4 -1.03278 -1.14 0.0293544 0.997709 -0.0609497 123 124 123
-1.4 -1.03209 -1.12 0.0454803 0.998239 -0.0380817 123 124 123
-1.38 -1.03361 -1.14 0.0468472 0.997707 -0.0488493 123 124 123
-1.38 -1.03263 -1.12 0.0438107 0.997783 -0.0501061 123 124 123
-1.36 -1.03488 -1.14 0.0467251 0.997795 -0.0471308 125 126 126
-1.36 -1.03379 -1.12 0.052761 0.997773 -0.0408112 125 126 126
-1.34 -1.03529 -1.14 0.0659575 0.996951 -0.0416896 125 127 124
-1.34 -1.03531 -1.12 0.0808059 0.996704 -0.00716559 125 127 124
-1.32 -1.03734 -1.14 0.0851833 0.995522 -0.0409836 121 123 122
-1.32 -1.0367 -1.12 0.069478 0.996954 -0.0354319 121 123 122
-1.3 -1.03888 -1.14 0.0833358 0.99463 -0.0613754 124 126 125
-1.3 -1.03795 -1.12 0.122315 0.991438 -0.0457095 124 126 125
-1.2874 -1.04 -1.12 0.144062 0.989448 0.0154509 122 123 121
-1.28376 -1.04 -1.14 0.0719413 0.996936 -0.0307036 122 123 121
-1.28 -1.04027 -1.14 0.0791959 0.99635 -0.0318506 119 121 120
-1.28 -1.04119 -1.12 0.158899 0.986255 0.0452942 119 121 120
-1.42 -1.03303 -1.16 0.0723476 0.997199 0.0189968 126 127 127
-1.44 -1.03155 -1.16 0.0760427 0.996313 0.0397215 126 127 127
-1.4 -1.03441 -1.16 0.0475746 0.998332 -0.0327223 124 125 124
-1.38 -1.03481 -1.16 0.0359162 0.996964 -0.0690904 130 131 130
-1.36 -1.03548 -1.16 0.0505146 0.996082 -0.0725838 124 126 124
-1.34 -1.03678 -1.16 0.069657 0.994479 -0.0784859 124 126 125
-1.32 -1.03851 -1.16 0.0969618 0.992252 -0.0776848 124 126 125
-1.30667 -1.04 -1.16 0.115998 0.989096 -0.0907398 121 121 120
-1.3 -1.04 -1.15184 0.0979193 0.990602 -0.0954932 121 121 120
-1.3 -1.0408 -1.16 0.111834 0.989471 -0.091871 128 130 128
-1.28 -1.04329 -1.16 0.123027 0.988667 -0.0860295 122 123 122
-1.42 -1.03175 -1.18 0.0884599 0.99595 0.0160611 122 124 123
-1.44 -1.03008 -1.18 0.0734435 0.997296 0.00266608 122 124 123
-1.4 -1.03398 -1.18 0.0969336 0.994985 0.0246929 120 121 120
-1.38 -1.036 -1.18 0.0839299 0.996472 -0.000314411 122 123 122
-1.36 -1.03775 -1.18 0.0688732 0.996834 -0.0397291 123 125 122
-1.34 -1.03867 -1.18 0.0628441 0.995953 -0.0642557 120 122 121
-1.32133 -1.04 -1.18 0.0757247 0.994004 -0.078879 120 122 121
-1.32 -1.04 -1.17876 0.0778987 0.99366 -0.0810603 120 122 121
-1.32 -1.0401 -1.18 0.0771168 0.993788 -0.0802397 124 126 124
-1.3 -1.04209 -1.18 0.0891934 0.994619 -0.0527023 124 125 124
-1.28 -1.04378 -1.18 0.0941799 0.994909 -0.0358663 126 127 126
-1.42 -1.03272 -1.2 0.0526624 0.997531 -0.0464518 122 124 123
-1.44 -1.03184 -1.2 0.0456819 0.997164 -0.0598009 122 124 123
-1.4 -1.03377 -1.2 0.0693917 0.997431 -0.0177983 121 123 121
-1.38 -1.03523 -1.2 0.0832202 0.996529 0.00213857 117 119 118
-1.36 -1.03699 -1.2 0.0983253 0.995088 0.0115317 118 120 118
-1.34 -1.03937 -1.2 0.102749 0.994643 -0.0113539 118 120 118
-1.33411 -1.04 -1.2 0.102467 0.994578 -0.017764 118 119 118
-1.32 -1.04139 -1.2 0.0953261 0.995213 -0.021527 123 125 123
-1.3 -1.04301 -1.2 0.0763935 0.996507 -0.0337248 124 126 125
-1.28 -1.04434 -1.2 0.070625 0.997082 -0.0289674 122 123 122
-1.42 -1.03344 -1.22 0.0503455 0.997553 -0.0485099 116 117 116
-1.44 -1.03241 -1.22 0.0577789 0.997609 -0.03792 116 117 116
-1.4 -1.03442 -1.22 0.0599116 0.996837 -0.0522183 117 119 118
-1.38 -1.0358 -1.22 0.0756599 0.995812 -0.0513171 116 118 115
-1.36 -1.03747 -1.22 0.0833709 0.995422 -0.0467415 116 118 116
-1.34 -1.03913 -1.22 0.0857941 0.995521 -0.0397223 115 117 115
-1.32935 -1.04 -1.22 0.0820611 0.996285 -0.0261233 119 121 119
-1.32 -1.04077 -1.22 0.0923733 0.995716 -0.00418664 121 121 121
-1.3 -1.04333 -1.22 0.0961504 0.995367 -0.000131087 122 124 123
-1.28 -1.04476 -1.22 0.0701432 0.997412 -0.0158124 123 125 124
-1.42 -1.03465 -1.24 0.066947 0.996383 -0.0523416 112 114 112
-1.44 -1.03309 -1.24 0.078367 0.99614 -0.0395312 112 114 112
-1.4 -1.03583 -1.24 0.0648314 0.99573 -0.0657097 114 114 112
-1.38 -1.0373 -1.24 0.0732493 0.995027 -0.0674985 113 114 112
-1.36 -1.03885 -1.24 0.0832253 0.994591 -0.0621461 117 119 117
-1.34694 -1.04 -1.24 0.0844829 0.99452 -0.0615912 119 120 118
-1.34 -1.04 -1.23183 0.0832158 0.993909 -0.0722539 119 120 118
-1.34 -1.04059 -1.24 0.0787264 0.994961 -0.0620884 122 124 122
-1.32 -1.04122 -1.24 0.0586245 0.997183 -0.04679 120 120 119
-1.3 -1.04313 -1.24 0.101813 0.994521 -0.023723 119 119 117
-1.28 -1.04503 -1.24 0.0885375 0.99546 -0.0349488 121 121 121
-1.42 -1.03558 -1.26 0.0818494 0.996497 -0.0171642 109 111 108
-1.44 -1.03397 -1.26 0.0849568 0.996358 -0.00734684 109 111 108
-1.4 -1.0371 -1.26 0.0783951 0.996031 -0.042157 118 120 118
-1.38 -1.03859 -1.26 0.070121 0.995633 -0.0616351 116 118 116
-1.36 -1.03992 -1.26 0.0736088 0.994997 -0.0675443 118 120 117
-1.35896 -1.04 -1.26 0.0737737 0.995024 -0.0669661 119 121 119
-1.34 -1.04144 -1.26 0.0757201 0.99533 -0.0598729 118 120 118
-1.32 -1.04284 -1.26 0.0571294 0.99516 -0.0799588 124 126 124
-1.3 -1.044 -1.26 0.093559 0.993407 -0.0662463 127 129 127
-1.28 -1.0464 -1.26 0.112587 0.991173 -0.0700024 122 123 121
-1.42 -1.03519 -1.28 0.0991904 0.994771 0.0243274 111 111 109
-1.44 -1.0332 -1.28 0.0987546 0.994374 0.0383117 111 111 109
-1.4 -1.03738 -1.28 0.105751 0.994378 -0.00549384 109 111 109
-1.38 -1.03978 -1.28 0.0837701 0.994207 -0.067347 118 120 118
-1.3774 -1.04 -1.28 0.0822699 0.993723 -0.0758046 115 117 115
-1.36 -1.04 -1.26112 0.0739222 0.994892 -0.068738 115 117 115
-1.36 -1.04138 -1.28 0.0776881 0.994311 -0.0728762 120 122 119
-1.34 -1.04291 -1.28 0.0821204 0.993946 -0.0729884 122 124 122
-1.32 -1.04469 -1.28 0.0614979 0.994299 -0.0871061 124 124 122
-1.3 -1.04558 -1.28 0.0878032 0.992774 -0.0817951 120 120 118
-1.28 -1.0481 -1.28 0.121643 0.989242 -0.0812617 119 121 119
-1.1 -1.04346 -0.98 0.0369988 0.997732 -0.0562355 130 132 131
-1.12 -1.04192 -0.96 0.021627 0.998254 -0.0549741 130 132 131
-1.1 -1.04269 -0.96 0.0537671 0.998007 -0.0330205 130 132 131
-1.12 -1.04336 -0.98 0.00159355 0.997477 -0.0709794 130 132 131
-1.08 -1.04464 -0.98 0.0649659 0.996824 -0.0460581 129 130 130
-1.08 -1.04428 -0.96 0.0697528 0.997324 -0.0218871 129 130 130
-1.06 -1.04601 -0.98 0.0625188 0.996695 -0.0518785 118 119 118
-1.06 -1.04533 -0.96 0.0351702 0.998153 -0.0495325 118 119 118
-1.04 -1.04699 -0.98 0.0357397 0.99472 -0.0961979 124 125 125
-1.04 -1.04508 -0.96 0.0152977 0.995726 -0.0910803 124 125 125
-1.02 -1.0477 -0.98 0.0545911 0.993559 -0.0992994 131 133 132
-1.02 -1.04609 -0.96 0.0623992 0.994785 -0.0806814 131 133 132
-1 -1.04924 -0.98 0.0571537 0.994825 -0.0840023 132 134 133
-1 -1.04755 -0.96 0.0751721 0.994715 -0.0699363 132 134 133
-0.98 -1.05024 -0.98 0.0719753 0.99645 -0.0436744 128 131 131
-0.98 -1.04968 -0.96 0.0895988 0.995384 -0.0343928 128 131 131
-0.96 -1.05197 -0.98 0.0797939 0.996241 -0.0337198 120 121 120
-0.96 -1.0509 -0.96 0.0608407 0.996716 -0.0534324 120 121 120
-1.1 -1.04474 -1 0.0270156 0.995107 -0.0950403 124 126 125
-1.12 -1.04489 -1 -0.0016628 0.996065 -0.088614 124 126 125
-1.08 -1.04608 -1 0.0592806 0.994859 -0.0821055 125 126 126
-1.06 -1.04725 -1 0.0741583 0.994918 -0.0681135 122 124 124
-1.04 -1.0492 -1 0.0726301 0.994327 -0.0777078 127 129 129
-1.02 -1.05015 -1 0.0522862 0.992245 -0.112768 125 128 127
-1 -1.05118 -1 0.0297069 0.992633 -0.117464 129 130 130
-0.98 -1.05128 -1 0.0358556 0.995257 -0.090427 133 135 134
-0.96 -1.05251 -1 0.0675006 0.995256 -0.0700672 133 135 134
-1.1 -1.04739 -1.02 0.0275854 0.994852 -0.0975111 123 125 125
-1.12 -1.04718 -1.02 0.0201757 0.996418 -0.0821182 123 125 125
-1.08 -1.04807 -1.02 0.0399382 0.994143 -0.100419 126 128 128
-1.06 -1.04888 -1.02 0.0535621 0.994769 -0.0869874 123 125 124
-1.04 -1.05009 -1.02 0.0784248 0.994612 -0.0678027 124 126 125
-1.02 -1.05211 -1.02 0.0875306 0.994157 -0.0631685 124 124 124
-1 -1.0539 -1.02 0.0450496 0.994863 -0.090657 124 126 125
-0.98 -1.05377 -1.02 0.0157948 0.993218 -0.115192 122 122 122
-0.96 -1.05454 -1.02 0.0439638 0.99364 -0.103667 115 116 115
-1.1 -1.04879 -1.04 0.0497068 0.998015 -0.0386785 125 128 127
-1.12 -1.04781 -1.04 0.0453939 0.998564 -0.0284595 125 128 127
-1.08 -1.05001 -1.04 0.0447108 0.997501 -0.0547081 128 130 129
-1.06 -1.05062 -1.04 0.0586111 0.995846 -0.0696755 123 125 124
-1.04 -1.052 -1.04 0.0590523 0.993575 -0.0965443 121 122 122
-1.02 -1.05298 -1.04 0.0653251 0.995066 -0.0746737 124 126 125
-1 -1.05468 -1.04 0.0720541 0.996546 -0.0412744 119 119 119
-0.98 -1.05592 -1.04 0.0396796 0.997082 -0.0652132 120 122 121
-0.96 -1.05645 -1.04 0.029467 0.996127 -0.0828435 125 127 126
-1.1 -1.04915 -1.06 0.055402 0.998448 0.0057409 120 122 121
-1.12 -1.04847 -1.06 0.0305147 0.999525 0.00428847 120 122 121
-1.08 -1.0503 -1.06 0.0627508 0.997771 -0.0227111 123 126 125
-1.06 -1.05132 -1.06 0.0826548 0.995364 -0.04919 123 125 124
-1.04 -1.05397 -1.06 0.0881633 0.99438 -0.0586185 118 121 120
-1.02 -1.05517 -1.06 0.042095 0.996343 -0.074353 120 122 121
-1 -1.05561 -1.06 0.0474679 0.996753 -0.0650454 116 118 118
-0.98 -1.05657 -1.06 0.0529397 0.996543 -0.0640208 116 118 117
-0.96 -1.05775 -1.06 0.0507461 0.996677 -0.0637117 127 129 128
-1.1 -1.04817 -1.08 0.0626244 0.997675 -0.0268774 122 124 123
-1.12 -1.04778 -1.08 0.0224199 0.99903 -0.0379061 122 124 123
-1.08 -1.05057 -1.08 0.109026 0.993796 -0.0219766 121 124 123
-1.06 -1.05292 -1.08 0.0954601 0.993991 -0.0535566 122 123 122
-1.04 -1.05466 -1.08 0.0805394 0.995415 -0.0516013 121 124 123
-1.02 -1.05592 -1.08 0.0525132 0.997475 -0.0478224 123 125 124
-1 -1.05679 -1.08 0.0514852 0.997639 -0.0454573 126 128 126
-0.98 -1.05852 -1.08 0.0607147 0.99762 -0.0326918 119 121 120
-0.96 -1.05933 -1.08 0.0451956 0.998224 -0.0388152 119 121 120
-1.1 -1.05051 -1.1 0.0401915 0.992772 -0.113087 120 122 121
-1.12 -1.04989 -1.1 0.0415082 0.994331 -0.0978906 120 122 121
-1.08 -1.05154 -1.1 0.084339 0.992627 -0.0870539 123 125 123
-1.06 -1.05372 -1.1 0.107985 0.991997 -0.0654324 124 126 125
-1.04 -1.0558 -1.1 0.0808688 0.994005 -0.073581 126 127 127
-1.02 -1.05711 -1.1 0.0499491 0.996306 -0.0698528 121 123 122
-1 -1.05796 -1.1 0.0224405 0.997956 -0.0598326 122 124 123
-0.98 -1.05801 -1.1 0.0492353 0.99689 -0.061534 128 130 129
-0.96 -1.05914 -1.1 0.0541953 0.994715 -0.0872104 117 119 117
-1.1 -1.05277 -1.12 0.0539564 0.993383 -0.101389 116 118 117
-1.12 -1.0513 -1.12 0.0728365 0.994865 -0.0702807 116 118 117
-1.08 -1.05389 -1.12 0.0658502 0.99116 -0.115179 114 115 114
-1.06 -1.05547 -1.12 0.103173 0.990208 -0.0940412 114 116 115
-1.04 -1.05776 -1.12 0.0816375 0.992171 -0.0945133 119 121 120
-1.02 -1.05888 -1.12 0.0376077 0.995213 -0.0902001 115 117 115
-1 -1.05918 -1.12 0.0356317 0.995414 -0.0887723 110 112 111
-0.988113 -1.06 -1.12 0.0735377 0.987571 -0.138911 113 115 114
-0.98 -1.06 -1.11571 0.0713256 0.98727 -0.142166 113 115 114
-0.96 -1.06 -1.10692 0.0581071 0.989817 -0.129945 115 117 116
-0.98 -1.06063 -1.12 0.0738936 0.986568 -0.14568 110 112 111
-0.96 -1.06193 -1.12 0.0639768 0.987263 -0.145667 112 114 113
-0.78 -1.08807 -1.46 0.0677137 0.997672 0.0080953 147 147 147
-0.8 -1.08532 -1.44 0.096696 0.994499 -0.0402691 147 147 147
-0.78 -1.08716 -1.44 0.0605924 0.997023 -0.0476835 147 147 147
-0.8 -1.08602 -1.46 0.0908521 0.995862 0.00214332 147 147 147
-0.76 -1.08875 -1.46 0.0335249 0.999436 0.0017304 141 143 142
-0.76 -1.08766 -1.44 0.0395147 0.998135 -0.0465366 141 143 142
-0.74 -1.08952 -1.46 0.0674018 0.997675 0.0100915 137 139 138
-0.74 -1.08905 -1.44 0.0842116 0.996385 -0.0111535 137 139 138
-0.72 -1.09102 -1.46 0.0753055 0.997118 0.00918976 136 138 137
-0.72 -1.09155 -1.44 0.0855357 0.996115 0.0209583 136 138 137
-0.7 -1.09218 -1.46 0.07252 0.997366 0.00141536 139 140 139
-0.7 -1.09228 -1.44 0.0629878 0.998014 0.00114642 139 140 139
-0.68 -1.09413 -1.46 0.0966515 0.995308 0.00443485 139 140 140
-0.68 -1.09392 -1.44 0.0958559 0.995344 -0.0100834 139 140 140
-0.66 -1.09633 -1.46 0.108973 0.993981 0.0112217 132 134 133
-0.66 -1.09615 -1.44 0.100742 0.994839 -0.01208 132 134 133
-0.64 -1.09828 -1.46 0.0939017 0.995542 -0.00887749 134 136 134
-0.64 -1.09784 -1.44 0.0843526 0.996199 -0.0217265 134 136 134
-0.78 -1.08684 -1.48 0.0566791 0.99591 0.0703658 146 148 146
-0.8 -1.08567 -1.48 0.0580985 0.996817 0.054603 146 148 146
-0.76 -1.08771 -1.48 0.0349486 0.997014 0.0688655 145 146 145
-0.74 -1.08821 -1.48 0.0778401 0.994644 0.0680024 138 140 139
-0.72 -1.09082 -1.48 0.101661 0.99368 0.047601 137 139 138
-0.7 -1.09242 -1.48 0.0877933 0.996098 0.00901294 131 133 132
-0.68 -1.09401 -1.48 0.0889072 0.995542 -0.0314984 135 136 135
-0.66 -1.09546 -1.48 0.111683 0.992581 -0.0480657 141 142 140
-0.64 -1.09833 -1.48 0.138033 0.987702 -0.0734207 135 137 135
-0.78 -1.085 -1.5 0.0671201 0.993742 0.0892814 148 150 149
-0.8 -1.08382 -1.5 0.0550188 0.993411 0.10054 148 150 149
-0.76 -1.08596 -1.5 0.0448868 0.998041 0.0435912 144 145 145
-0.74 -1.08676 -1.5 0.0755302 0.996483 0.0362872 141 142 142
-0.72 -1.08921 -1.5 0.119176 0.991807 0.0459984 132 134 133
-0.7 -1.09148 -1.5 0.135034 0.990334 0.0316942 140 141 140
-0.68 -1.09487 -1.5 0.152455 0.988302 -0.00396997 141 143 142
-0.66 -1.09811 -1.5 0.181125 0.969532 -0.164929 139 140 139
-0.648259 -1.1 -1.5 0.174923 0.966324 -0.188733 133 135 135
-0.64 -1.1 -1.49123 0.175156 0.970712 -0.164432 133 135 135
-0.64 -1.10163 -1.5 0.191312 0.962352 -0.193075 127 128 128
-0.78 -1.08267 -1.52 0.100758 0.993426 0.0543382 142 144 143
-0.8 -1.08176 -1.52 0.04294 0.998114 0.0438727 142 144 143
-0.76 -1.08592 -1.52 0.0906732 0.995564 0.0250955 140 141 141
-0.74 -1.08696 -1.52 0.0808081 0.996728 0.00163226 139 140 140
-0.72 -1.08888 -1.52 0.115254 0.993154 -0.0190049 137 138 137
-0.7 -1.09134 -1.52 0.140591 0.989648 -0.0288121 134 136 135
-0.68 -1.09461 -1.52 0.274396 0.951338 -0.140224 135 136 136
-0.666391 -1.1 -1.52 0.356304 0.908143 -0.219824 133 135 135
-0.66 -1.1 -1.50887 0.25354 0.944909 -0.207037 133 135 135
-0.66 -1.1025 -1.52 0.219569 0.974694 0.0419568 132 134 133
-0.64 -1.107 -1.52 0.214377 0.962435 0.166617 129 131 130
-0.78 -1.08286 -1.54 0.0697718 0.997334 0.0213914 137 139 138
-0.8 -1.08216 -1.54 0.0413472 0.998306 0.0409363 137 139 138
-0.76 -1.08556 -1.54 0.106973 0.99424 0.00652548 134 135 135
-0.74 -1.08641 -1.54 0.123306 0.98862 -0.0861775 137 139 139
-0.72 -1.08972 -1.54 0.120356 0.987267 -0.104014 138 139 139
-0.7 -1.09269 -1.54 0.183203 0.982572 -0.031454 138 140 140
-0.680428 -1.1 -1.54 0.282913 0.958659 0.0305298 136 137 137
-0.68 -1.1 -1.53942 0.279544 0.937815 -0.205812 136 137 137
-0.66 -1.09496 -1.54 -0.0865077 0.955461 0.282155 136 137 136
-0.679576 -1.1 -1.54 -0.274788 0.927343 0.254022 136 137 136
-0.66 -1.1 -1.52508 -0.0223214 0.907803 0.418802 136 137 136
-0.64 -1.1 -1.53374 0.211723 0.846095 0.489179 137 137 137
-0.64 -1.09617 -1.54 0.148541 0.903534 0.401948 137 137 137
-0.68 -1.10013 -1.54 0.0814226 0.988367 0.128453 134 136 135
-0.8 -1.08 -1.55912 0.0559731 0.990265 0.127443 132 134 133
-0.798 -1.08 -1.56 0.0567837 0.992597 0.107367 132 134 133
-0.8 -1.07989 -1.56 0.0559245 0.990785 0.123361 132 134 133
-0.78 -1.08108 -1.56 0.130241 0.991123 0.026683 134 136 135
-0.76 -1.0845 -1.56 0.18561 0.981638 -0.0439936 134 136 135
-0.74 -1.08952 -1.56 0.166351 0.985773 -0.0240649 135 137 136
-0.72 -1.09462 -1.56 0.0761481 0.994687 0.06928 132 133 133
-0.7 -1.0933 -1.56 0.023073 0.990189 0.137813 132 134 133
-0.68 -1.1 -1.54046 -0.000974171 0.965057 0.262038 136 138 137
-0.68 -1.09421 -1.56 -0.011136 0.970845 0.239451 136 138 137
-0.66 -1.09056 -1.56 -0.0589214 0.983605 0.170438 133 133 134
-0.64 -1.0914 -1.56 0.0455234 0.987474 0.151069 89 91 92
-0.8 -1.07925 -1.58 0.0889285 0.993628 -0.0692488 131 133 132
-0.791633 -1.08 -1.58 0.095814 0.993175 -0.0665039 131 133 132
-0.78 -1.08103 -1.58 0.154018 0.986247 -0.059954 134 136 135
-0.76 -1.08827 -1.58 0.18078 0.98228 0.0494448 131 132 132
-0.74 -1.09061 -1.58 -0.00738167 0.991668 0.128609 129 131 130
-0.72 -1.08695 -1.58 -0.0600039 0.96157 0.267922 129 131 130
-0.7 -1.08523 -1.58 0.00402159 0.96304 0.269329 134 136 135
-0.68 -1.08697 -1.58 0.0526549 0.964038 0.260495 97 99 99
-0.66 -1.08767 -1.58 0.0552268 0.982573 0.177484 96 97 97
-0.64 -1.0898 -1.58 0.0895707 0.990604 0.103345 119 121 121
-0.8 -1.08 -1.58709 0.115941 0.983787 -0.136825 130 131 131
-0.8 -1.08259 -1.6 0.156842 0.964387 -0.212977 134 136 135
-0.78 -1.08643 -1.6 0.0403729 0.964699 -0.260242 134 136 135
-0.76 -1.08434 -1.6 0.022111 0.99674 0.0775851 132 134 133
-0.74 -1.0827 -1.6 -0.0508757 0.945335 0.322108 128 128 128
-0.72 -1.08028 -1.6 -0.0343489 0.943595 0.329315 93 95 95
-0.7 -1.08167 -1.6 0.0418436 0.976425 0.211763 92 94 96
-0.68 -1.08352 -1.6 0.055062 0.983715 0.171093 117 119 118
-0.66 -1.08396 -1.6 0.107898 0.97807 0.17815 114 116 115
-0.64 -1.08787 -1.6 0.147639 0.979447 0.137428 114 116 115
0.3 -0.835791 -1.88 -0.465132 0.609871 0.641646 152 157 152
0.295739 -0.84 -1.88 -0.65539 0.313961 0.686944 152 157 152
0.3 -0.84 -1.87593 -0.555996 0.421643 0.7163 152 157 152
0.32 -0.84 -1.86653 -0.332291 0.623675 0.707539 134 137 132
0.32 -0.834241 -1.88 -0.126727 0.875763 0.46581 134 137 132
0.3 -0.854144 -1.88 -0.687921 -0.199408 0.697855 132 137 131
0.30163 -0.86 -1.88 -0.725211 -0.157641 0.670238 134 138 133
0.32 -0.86 -1.86468 -0.584327 0.034 0.810806 134 138 133
0.32 -0.88 -1.86163 -0.525555 0.190644 0.829124 132 136 131
0.303138 -0.88 -1.88 -0.630358 0.20525 0.748679 132 136 131
0.3 -0.886682 -1.88 -0.742071 0.302684 0.598091 133 137 130
0.295779 -0.9 -1.88 -0.840555 0.292194 0.456168 133 137 130
0.3 -0.9 -1.86327 -0.69041 0.1378 0.710172 133 137 130
0.32 -0.9 -1.8619 -0.0675591 -0.109074 0.991735 131 135 129
0.3 -0.92 -1.86266 -0.313178 -0.150408 0.937708 136 139 132
0.281032 -0.92 -1.88 -0.58214 -0.0111564 0.813012 136 139 132
0.32 -0.92 -1.86612 0.184226 -0.34309 0.921059 130 135 129
0.3 -0.94 -1.87397 -0.146272 -0.484564 0.86244 136 140 133
0.290299 -0.94 -1.88 -0.546286 -0.391737 0.740347 136 140 133
0.32 -0.934044 -1.88 0.447358 -0.491268 0.747346 132 137 130
0.31346 -0.94 -1.88 0.40939 -0.538744 0.736311 132 137 130
0.26 -0.956105 -1.88 -0.306808 0.932002 0.192981 135 140 134
0.247261 -0.96 -1.88 -0.291529 0.953484 0.0766725 135 140 134
0.26 -0.96 -1.87586 -0.206217 0.705998 0.677526 135 140 134
0.28 -0.96 -1.87283 0.256071 0.582302 0.771591 132 139 132
0.28 -0.950505 -1.88 0.105657 0.643178 0.758392 132 139 132
0.3 -0.95054 -1.88 -0.220356 -0.504093 0.835065 133 138 132
0.290334 -0.96 -1.88 0.59217 0.56956 0.570032 133 138 132
0.28 -0.825856 -1.9 -0.436037 0.526972 0.729501 130 135 129
0.273195 -0.84 -1.9 -0.818016 -0.0755357 0.570214 130 135 129
0.28 -0.84 -1.89433 -0.635514 -0.0150229 0.771943 130 135 129
0.3 -0.824904 -1.9 -0.0212172 0.881757 0.471226 156 161 157
0.32 -0.822908 -1.9 -0.207938 0.742595 0.636644 136 140 135
0.28 -0.86 -1.8971 -0.569144 -0.0842461 0.817911 133 137 131
0.275672 -0.86 -1.9 -0.558604 -0.0807904 0.825491 133 137 131
0.3 -0.86 -1.88181 -0.72808 -0.157915 0.667055 132 136 131
0.28 -0.88 -1.8994 -0.563017 -0.00955073 0.82639 134 138 131
0.279116 -0.88 -1.9 -0.560121 -0.00996924 0.828351 134 138 131
0.3 -0.88 -1.88241 -0.610907 0.184363 0.769937 132 136 129
0.28 -0.9 -1.89759 -0.582291 0.284942 0.76141 134 138 132
0.276695 -0.9 -1.9 -0.587997 0.251462 0.768783 134 138 132
0.28 -0.92 -1.88073 -0.592767 -0.00906774 0.805323 136 140 133
0.266295 -0.92 -1.9 -0.819891 0.107634 0.562312 136 140 133
0.28 -0.94 -1.88925 -0.663116 -0.0550071 0.746493 136 140 133
0.271179 -0.94 -1.9 -0.745812 -0.224224 0.627286 136 140 133
0.32 -0.94 -1.88336 0.400736 -0.46766 0.787848 132 137 131
0.24 -0.96 -1.88541 0.157633 0.886433 0.435187 131 137 130
0.24 -0.952838 -1.9 0.302021 0.924172 0.233856 131 137 130
0.22 -0.96 -1.89472 -0.0899788 0.741655 0.664719 131 137 130
0.22 -0.954567 -1.9 -0.0871543 0.843546 0.529938 131 137 130
0.26 -0.96 -1.88818 -0.262989 0.871181 -0.414584 134 140 132
0.25031 -0.96 -1.9 0.522353 0.78384 0.335772 134 140 132
0.278983 -0.96 -1.9 -0.973858 0.0518643 0.221157 137 140 132
0.3 -0.96 -1.89147 0.241568 -0.425512 0.872115 134 139 132
0.32 -0.96 -1.89648 0.20498 -0.536848 0.818399 131 136 130
0.26 -0.809749 -1.92 -0.336224 0.756343 0.561159 167 174 167
0.250031 -0.82 -1.92 -0.739726 0.305693 0.599464 167 174 167
0.26 -0.82 -1.90618 -0.4562 0.366524 0.81089 167 174 167
0.28 -0.82 -1.90525 -0.179179 0.711939 0.678997 136 140 136
0.28 -0.812451 -1.92 -0.00132064 0.873803 0.486278 136 140 136
0.3 -0.82 -1.91012 -0.0304193 0.833013 0.552416 139 142 137
0.3 -0.811631 -1.92 -0.134561 0.782368 0.608106 139 142 137
0.32 -0.82 -1.90293 -0.247211 0.68316 0.687153 140 142 137
0.32 -0.801447 -1.92 -0.299551 0.679459 0.66978 140 142 137
0.26 -0.84 -1.9121 -0.616713 0.0107045 0.787116 128 132 127
0.249521 -0.84 -1.92 -0.602688 0.0185749 0.79776 128 132 127
0.26 -0.86 -1.91152 -0.608955 -0.0345893 0.79245 134 137 131
0.248911 -0.86 -1.92 -0.596757 -0.0167009 0.802248 134 137 131
0.26 -0.88 -1.91325 -0.557462 0.00493156 0.830187 135 139 132
0.249368 -0.88 -1.92 -0.531726 0.0278194 0.84646 135 139 132
0.26 -0.9 -1.91182 -0.540141 0.0713573 0.838544 135 139 133
0.246232 -0.9 -1.92 -0.517222 0.0698715 0.852995 135 139 133
0.26 -0.92 -1.91007 -0.707903 0.0369854 0.70534 137 141 135
0.244791 -0.92 -1.92 -0.550634 -0.0479163 0.83337 137 141 135
0.26 -0.94 -1.91335 -0.593947 -0.016453 0.804336 137 140 133
0.250568 -0.94 -1.92 -0.571366 0.127831 0.810679 137 140 133
0.24 -0.954177 -1.92 -0.214999 0.952237 0.216841 136 139 133
0.22 -0.957855 -1.92 -0.178552 0.970899 -0.159609 136 139 133
0.26 -0.96 -1.91968 0.276465 -0.309869 0.909697 136 139 132
-0.16 -0.998642 -0.48 0.634282 0.760287 0.140176 121 121 119
-0.158372 -1 -0.48 0.74794 0.623992 0.226318 121 121 119
-0.16 -0.994954 -0.5 0.589892 0.743263 0.315575 121 121 119
-0.153635 -1 -0.5 0.811055 0.538422 0.228673 121 121 119
-0.16 -1.02 -0.488405 0.775413 0.120163 0.619916 132 129 115
